# .PCD v0.7 - Point Cloud Data file format
VERSION 0.7
FIELDS x y z rgba
SIZE 4 4 4 4
TYPE F F F U
COUNT 1 1 1 1
WIDTH 1044
HEIGHT 1
VIEWPOINT 0 0 0 1 0 0 0
POINTS 1044
DATA ascii
-0.037761774 -0.59159857 1.0551484 4290230911
-0.036111917 -0.59157145 1.0550858 4290099328
-0.034469318 -0.5916059 1.0560462 4290099328
-0.032820407 -0.59157878 1.0559835 4290165377
-0.031171512 -0.59155166 1.055921 4290165377
-0.029522602 -0.5915246 1.0558583 4290165376
-0.027873706 -0.59149748 1.0557957 4290296962
-0.026236776 -0.59153199 1.0567565 4290428294
-0.024588827 -0.59150493 1.0566939 4290559882
-0.02294087 -0.59147787 1.0566313 4290428300
-0.021292921 -0.59145075 1.0565687 4290296460
-0.019660752 -0.59148538 1.0575298 4290230415
-0.018013757 -0.59145832 1.0574672 4290164620
-0.016366754 -0.5914312 1.0574046 4290033288
-0.014719751 -0.59140414 1.0573422 4289901955
-0.013072755 -0.59137702 1.0572796 4289770621
-0.011405211 -0.59128821 1.0561931 4289836410
-0.0097357668 -0.59119928 1.0551066 4289967994
-0.0080644228 -0.59111035 1.0540203 4290033786
-0.0062508248 -0.59065038 1.0467902 4290165374
-0.0045213066 -0.59043753 1.0436556 4290230911
-0.0027607791 -0.59016275 1.0394967 4290165376
-0.069214508 -0.59315801 1.0466827 4283192381
-0.067544326 -0.59319115 1.0476426 4282929206
-0.065865248 -0.59328461 1.0496253 4283389494
-0.064170219 -0.59349895 1.053654 4285297996
-0.062509552 -0.59353215 1.0546141 4288324208
-0.060850777 -0.59356546 1.0555744 4289772157
-0.059179876 -0.5937196 1.0585808 4289772149
-0.057532869 -0.59369254 1.0585182 4290101109
-0.05588587 -0.59366548 1.0584556 4290297973
-0.054238874 -0.59363842 1.058393 4290297972
-0.052591864 -0.5936113 1.0583305 4290429046
-0.050944868 -0.59358424 1.058268 4290494839
-0.049299177 -0.59349662 1.0571821 4290429050
-0.047651228 -0.5934695 1.0571195 4290165624
-0.046003271 -0.59344244 1.0570569 4290034040
-0.044353787 -0.59335476 1.0559709 4290099579
-0.042704884 -0.59332764 1.0559082 4290099581
-0.041055989 -0.59330058 1.0558456 4290165374
-0.03940269 -0.59321284 1.0547597 4290165120
-0.037758183 -0.59324634 1.0557203 4290165120
-0.036109272 -0.59321922 1.0556576 4290099329
-0.034460377 -0.5931921 1.055595 4290033536
-0.032811467 -0.59316504 1.0555325 4290033537
-0.031162571 -0.59313792 1.0554698 4290099329
-0.029513661 -0.5931108 1.0554072 4290099841
-0.027864765 -0.59308374 1.0553445 4290231429
-0.026227843 -0.59311736 1.0563056 4290363018
-0.024579894 -0.5930903 1.0562431 4290494349
-0.022931937 -0.59306318 1.0561805 4290428307
-0.021283988 -0.59303606 1.0561179 4290296468
-0.019651819 -0.59306979 1.0570792 4290164632
-0.018004823 -0.59304273 1.0570166 4290033044
-0.016357828 -0.59301567 1.056954 4289901709
-0.014710817 -0.59298861 1.0568914 4289901959
-0.013063822 -0.59296149 1.056829 4289836418
-0.011396278 -0.59287351 1.0557423 4289770877
-0.0097268261 -0.59278554 1.0546554 4289836157
-0.0080554821 -0.5926975 1.0535688 4289967741
-0.0062652566 -0.59230483 1.0473611 4290165120
-0.0045366473 -0.59209478 1.0442257 4290296962
-0.0027770586 -0.5918237 1.0400659 4290296706
-0.072595403 -0.59451103 1.0412401 4282995515
-0.070904911 -0.59460247 1.043223 4282929721
-0.069192797 -0.59481287 1.0472521 4282863413
-0.067500055 -0.59496391 1.0502583 4282995250
-0.065823838 -0.59505558 1.0522416 4284574020
-0.064121813 -0.59532571 1.0572946 4287535209
-0.062473863 -0.59529865 1.057232 4289508735
-0.060817946 -0.59533107 1.0581927 4290035327
-0.059163943 -0.5953635 1.0591532 4290100857
-0.057517894 -0.59533644 1.0590907 4290298485
-0.055871841 -0.59530938 1.0590281 4290429558
-0.054225791 -0.59528232 1.0589657 4290429557
-0.052582938 -0.59519565 1.0578799 4290560632
-0.050935935 -0.59516859 1.0578173 4290494840
-0.049288932 -0.59514153 1.0577548 4290165879
-0.047642294 -0.59505486 1.0566685 4289902453
-0.045994338 -0.59502774 1.0566059 4289902455
-0.044344846 -0.59494102 1.0555197 4290034042
-0.042695943 -0.59491384 1.0554571 4290033789
-0.041047048 -0.59488678 1.0553944 4290099581
-0.039398137 -0.59485966 1.0553318 4290099328
-0.037749242 -0.59483254 1.0552692 4290099328
-0.036100332 -0.59480548 1.0552065 4290033538
-0.034458671 -0.59483814 1.0561677 4289967488
-0.032810722 -0.59481102 1.0561051 4289967744
-0.031162765 -0.5947839 1.0560426 4290033538
-0.029514816 -0.59475684 1.05598 4290165383
-0.027866866 -0.59472978 1.0559174 4290296972
-0.026230905 -0.59476244 1.0568788 4290428306
-0.02458391 -0.59473538 1.0568162 4290428052
-0.022936907 -0.59470832 1.0567536 4290296474
-0.021289896 -0.59468126 1.0566912 4290230682
-0.019658703 -0.59471405 1.0576525 4290099098
-0.018012647 -0.59468699 1.05759 4289967254
-0.0163843 -0.59471989 1.0585518 4289835918
-0.014720548 -0.59463286 1.057465 4289836169
-0.013074499 -0.5946058 1.0574024 4289770628
-0.011407893 -0.59451878 1.0563158 4289705087
-0.0097608827 -0.59449172 1.0562532 4289639035
-0.0080914386 -0.59440464 1.0551661 4289770620
-0.0063498802 -0.59413755 1.051006 4290165377
-0.0046250634 -0.5939303 1.0478698 4290362756
-0.0028945617 -0.59372294 1.0447335 4290428293
-0.074296221 -0.59596288 1.0377786 4283192637
-0.072571777 -0.59616941 1.0418084 4283061307
-0.070882246 -0.59625912 1.0437917 4283061048
-0.069145687 -0.59658283 1.0498685 4282797357
-0.067467578 -0.59667265 1.0518522 4283916088
-0.065804064 -0.59670401 1.0528128 4286745436
-0.064103022 -0.5969696 1.0578672 4289245563
-0.062456023 -0.59694254 1.0578046 4290035329
-0.06080107 -0.59697402 1.0587654 4289903737
-0.059148006 -0.59700561 1.0597265 4290363514
-0.057502903 -0.5969786 1.059664 4290429558
-0.0558578 -0.59695154 1.0596014 4290429557
-0.054216865 -0.59686577 1.0585153 4290495350
-0.052570809 -0.59683871 1.0584527 4290560632
-0.050924767 -0.59681165 1.0583903 4290363257
-0.049280006 -0.59672594 1.0573041 4290034038
-0.047633003 -0.59669888 1.0572416 4289902453
-0.045985404 -0.59661305 1.0561551 4289968249
-0.044337455 -0.59658599 1.0560925 4290165372
-0.042689499 -0.59655893 1.0560299 4290099327
-0.041041549 -0.59653181 1.0559673 4290099328
-0.0393936 -0.59650469 1.0559047 4290165122
-0.037745643 -0.59647763 1.055842 4290099329
-0.036097694 -0.59645057 1.0557795 4289967747
-0.034449738 -0.59642345 1.0557169 4289835905
-0.032801788 -0.59639633 1.0556543 4289901957
-0.031153832 -0.59636927 1.0555917 4290033546
-0.029515985 -0.59640104 1.0565534 4290165138
-0.027868982 -0.59637398 1.0564908 4290296472
-0.026221979 -0.59634686 1.0564282 4290362016
-0.024574984 -0.59631979 1.0563656 4290296225
-0.022927981 -0.59629273 1.056303 4290164899
-0.021295834 -0.59632462 1.0572647 4290099106
-0.019649778 -0.59629756 1.0572021 4290033312
-0.018020477 -0.59632957 1.0581641 4289967516
-0.016375381 -0.59630251 1.0581017 4289770131
-0.014730278 -0.59627545 1.0580392 4289836175
-0.013085175 -0.59624839 1.0579766 4289836425
-0.011419524 -0.59616226 1.0568895 4289639298
-0.0097519569 -0.59607613 1.0558026 4289573500
-0.0081049539 -0.59604907 1.05574 4289705084
-0.0063409321 -0.59572649 1.050554 4290099331
-0.0046404637 -0.59558111 1.0484418 4290362502
-0.0029361956 -0.59543562 1.0463295 4290494088
-0.074287184 -0.59756565 1.0373228 4283258173
-0.072577365 -0.59771085 1.0403299 4283126586
-0.070873246 -0.59785628 1.0433373 4282995508
-0.069111317 -0.59828973 1.0514628 4283323698
-0.067446865 -0.59832013 1.0524237 4285429578
-0.065773509 -0.59840822 1.0544083 4288587378
-0.064094096 -0.59855402 1.0574166 4289903743
-0.062438201 -0.59858459 1.0583775 4290166655
-0.060792148 -0.59855753 1.058315 4290101114
-0.059139088 -0.59858823 1.0592763 4290363514
-0.057493985 -0.59856117 1.0592139 4290429559
-0.055848882 -0.59853411 1.0591514 4290495094
-0.054203782 -0.59850705 1.0590888 4290495094
-0.052558687 -0.59847999 1.0590264 4290494840
-0.050913583 -0.59845299 1.0589639 4290297465
-0.049269784 -0.59836811 1.0578773 4290099577
-0.047624078 -0.59828329 1.0567909 4290034042
-0.045977082 -0.59825623 1.0567284 4290165372
-0.044328522 -0.59817129 1.0556417 4290231422
-0.042680565 -0.59814417 1.0555789 4290165376
-0.041032616 -0.59811711 1.0555164 4290165121
-0.039384667 -0.59809005 1.0554538 4290099328
-0.03773671 -0.59806293 1.0553912 4290033536
-0.036088761 -0.59803581 1.0553286 4289901952
-0.034448069 -0.59806669 1.0562904 4289770370
-0.032801058 -0.59803963 1.0562278 4289968009
-0.031154055 -0.59801257 1.0561652 4290230673
-0.02950706 -0.59798545 1.0561028 4290231193
-0.027871113 -0.59801638 1.0570644 4290296733
-0.026225064 -0.59798932 1.0570019 4290296738
-0.024579007 -0.59796226 1.0569394 4290230690
-0.022932965 -0.5979352 1.0568769 4290099362
-0.021301765 -0.59796619 1.057839 4290033569
-0.019656662 -0.59793913 1.0577765 4290033312
-0.018011559 -0.59791207 1.057714 4289967772
-0.016384181 -0.59794307 1.0586762 4289704595
-0.01472136 -0.59785801 1.0575891 4289770640
-0.013076257 -0.59783101 1.0575266 4289771147
-0.011410598 -0.59774578 1.0564392 4289573764
-0.0097645484 -0.59771872 1.0563766 4289639294
-0.0080960281 -0.59763348 1.0552894 4289770621
-0.0063788034 -0.59743184 1.052152 4290033536
-0.0046558492 -0.59723014 1.0490143 4290230915
-0.0029525273 -0.59708655 1.0469016 4290296708
-0.074262604 -0.59922493 1.0378908 4283323966
-0.072524548 -0.59948075 1.0429461 4283061048
-0.070823297 -0.5996235 1.0459546 4282863920
-0.069051564 -0.6001063 1.0551058 4284113467
-0.067390919 -0.60013592 1.0560671 4286877277
-0.06574297 -0.6001088 1.0560045 4289114229
-0.064075328 -0.60019517 1.0579897 4289969788
-0.062420376 -0.60022485 1.0589513 4289969273
-0.060775273 -0.60019779 1.0588888 4290166905
-0.059123185 -0.60022748 1.0598502 4290297721
-0.057479031 -0.60020041 1.0597878 4290561145
-0.055834882 -0.60017341 1.0597253 4290560632
-0.054194864 -0.60008967 1.0586388 4290560633
-0.052549768 -0.60006261 1.0585762 4290429051
-0.050904665 -0.60003555 1.0585138 4290297211
-0.049259562 -0.60000849 1.0584513 4290165373
-0.047614809 -0.59992456 1.0573645 4290165375
-0.045968752 -0.5998975 1.0573019 4290230913
-0.044321138 -0.59981358 1.0562152 4290231169
-0.042674135 -0.59978646 1.0561526 4290099584
-0.04102714 -0.5997594 1.05609 4290033791
-0.039380137 -0.59973228 1.0560274 4290033534
-0.037733134 -0.59970522 1.0559649 4290033536
-0.036086138 -0.59967816 1.0559024 4289968258
-0.034446392 -0.59970808 1.0568641 4290033545
-0.03280035 -0.59968102 1.0568017 4290230930
-0.031154294 -0.59965396 1.0567391 4290428058
-0.029518347 -0.599684 1.0577013 4290494115
-0.027873244 -0.59965694 1.0576389 4290362275
-0.026228148 -0.59962988 1.0575764 4290296485
-0.024583045 -0.59960282 1.0575138 4290230692
-0.022937942 -0.59957576 1.0574514 4290099619
-0.021292847 -0.59954876 1.0573889 4290033825
-0.019647744 -0.59952176 1.0573264 4289968030
-0.018019412 -0.5995518 1.0582888 4289902236
-0.016375262 -0.59952474 1.0582263 4289836181
-0.014731105 -0.59949768 1.0581639 4289902227
-0.013086956 -0.59947067 1.0581014 4289836685
-0.011422236 -0.59938645 1.057014 4289705350
-0.0097771324 -0.59935945 1.0569514 4289836418
-0.0081320368 -0.59933239 1.0568889 4289836671
-0.0064166822 -0.59913349 1.0537509 4290033536
-0.0047199987 -0.59899187 1.0516379 4290099329
-0.0030195154 -0.59885013 1.0495247 4290033537
-0.074206948 -0.60099387 1.0405071 4283258175
-0.072500959 -0.6011337 1.0435159 4283060792
-0.070800677 -0.60127372 1.0465251 4283258677
-0.069029942 -0.60174835 1.0556788 4285297740
-0.067381985 -0.60172123 1.0556163 4287732584
-0.06572324 -0.6017499 1.0565779 4289245813
-0.064066403 -0.60177863 1.0575393 4289575028
-0.062411457 -0.60180748 1.0585011 4289837686
-0.060766354 -0.60178041 1.0584387 4290101113
-0.05911427 -0.60180914 1.0594004 4290297722
-0.057470117 -0.60178208 1.059338 4290429306
-0.055831049 -0.60169923 1.0582511 4290494841
-0.054185946 -0.60167223 1.0581887 4290560379
-0.05254085 -0.60164517 1.0581262 4290428797
-0.050895747 -0.60161817 1.0580636 4290231420
-0.04925194 -0.60153508 1.0569766 4290165373
-0.047605891 -0.60150802 1.0569141 4290231166
-0.045959834 -0.60148096 1.0568515 4290165376
-0.044312213 -0.60139799 1.0557646 4290099327
-0.04266521 -0.60137087 1.055702 4289901949
-0.041018214 -0.60134381 1.0556394 4289901950
-0.039371211 -0.60131669 1.0555768 4289967744
-0.037724208 -0.60128963 1.0555143 4290165125
-0.036077213 -0.60126257 1.0554518 4290296972
-0.034437474 -0.6012916 1.0564138 4290493844
-0.032791432 -0.60126454 1.0563513 4290494363
-0.031145375 -0.60123748 1.0562887 4290559904
-0.029509429 -0.60126656 1.0572512 4290494373
-0.027864326 -0.60123956 1.0571887 4290428069
-0.02621923 -0.6012125 1.0571263 4290296741
-0.024574127 -0.60118544 1.0570638 4290230948
-0.022929024 -0.60115838 1.0570012 4290165154
-0.021283928 -0.60113132 1.0569388 4290033568
-0.019638825 -0.60110432 1.0568763 4289968030
-0.017993722 -0.60107726 1.0568138 4289968029
-0.016366351 -0.60110641 1.0577766 4290033562
-0.014722195 -0.60107934 1.0577141 4290033815
-0.01305842 -0.60099614 1.0566263 4290033811
-0.011413317 -0.60096908 1.0565639 4289968269
-0.0097682141 -0.60094202 1.0565014 4290099337
-0.0081231184 -0.60091496 1.0564388 4290033795
-0.0064077489 -0.60071886 1.0533 4289967743
-0.004711058 -0.60057902 1.0511866 4289836157
-0.0030105598 -0.60043919 1.0490727 4289836158
-0.074182399 -0.60264772 1.0410767 4283061054
-0.072477378 -0.60278481 1.0440862 4283126841
-0.070764422 -0.60297692 1.0481205 4283982657
-0.069021001 -0.60333359 1.055228 4286482268
-0.067373052 -0.60330653 1.0551654 4288258926
-0.065714315 -0.60333431 1.0561273 4289311605
-0.064057484 -0.60336214 1.057089 4289509234
-0.062411431 -0.60333508 1.0570265 4289837940
-0.060757436 -0.60336304 1.0579885 4290035319
-0.059112336 -0.60333598 1.0579261 4290363514
-0.057467233 -0.60330892 1.0578636 4290297721
-0.05582213 -0.60328186 1.057801 4290428794
-0.054177027 -0.6032548 1.0577385 4290494589
-0.052531932 -0.60322773 1.0576761 4290428799
-0.050886828 -0.60320073 1.0576136 4290231166
-0.049243014 -0.6031186 1.0565262 4290099579
-0.047596965 -0.60309154 1.0564637 4290165374
-0.045950297 -0.60300946 1.0553765 4290099327
-0.044303287 -0.6029824 1.0553139 4289901949
-0.042656284 -0.60295528 1.0552514 4289901948
-0.041009288 -0.60292822 1.0551888 4289967742
-0.039362285 -0.6029011 1.0551262 4290099334
-0.037715282 -0.60287404 1.0550636 4290362253
-0.036074605 -0.60290217 1.056026 4290559640
-0.034428548 -0.60287511 1.0559635 4290756767
-0.032782506 -0.60284805 1.0559009 4290691491
-0.031136449 -0.60282099 1.0558383 4290625701
-0.029500511 -0.60284913 1.0568012 4290428583
-0.027855407 -0.60282212 1.0567386 4290362789
-0.026210312 -0.60279506 1.0566761 4290296995
-0.024565209 -0.60276806 1.0566137 4290231202
-0.022920106 -0.602741 1.0565512 4290165408
-0.02127501 -0.60271394 1.0564888 4290165407
-0.019629907 -0.60268688 1.0564262 4290165406
-0.017984804 -0.60265982 1.0563637 4290165662
-0.016339708 -0.60263282 1.0563012 4290230943
-0.014694605 -0.60260576 1.0562388 4290230941
-0.013049502 -0.60257876 1.0561762 4290296733
-0.011383828 -0.60249627 1.055088 4290296984
-0.0097377785 -0.60246921 1.0550256 4290362258
-0.0081142001 -0.60249758 1.0559888 4290165384
-0.0063988157 -0.60230416 1.0528492 4289901952
-0.0047021098 -0.60216618 1.0507351 4289638777
-0.0030269288 -0.60208362 1.0496466 4289704572
-0.074095726 -0.60451531 1.0457444 4282929468
-0.072395474 -0.60464972 1.0487552 4283258427
-0.070700929 -0.60478425 1.051766 4284837710
-0.068986714 -0.60502684 1.0568262 4287271785
-0.067340665 -0.60499978 1.0567636 4288456306
-0.065694615 -0.60497272 1.0567012 4289377400
-0.064038716 -0.60499966 1.0576634 4289443441
-0.062393621 -0.6049726 1.057601 4289772149
-0.060748518 -0.6049456 1.0575384 4290035319
-0.059096444 -0.60497248 1.0585008 4290363514
-0.057452291 -0.60494542 1.0584383 4290429307
-0.055813212 -0.60486448 1.057351 4290428796
-0.054168109 -0.60483742 1.0572884 4290428797
-0.052523021 -0.60481036 1.0572259 4290363006
-0.050877918 -0.6047833 1.0571635 4290165373
-0.049232814 -0.6047563 1.057101 4290034043
-0.047588039 -0.60467505 1.0560133 4290165119
-0.045941982 -0.60464799 1.0559508 4290099330
-0.044295933 -0.60462093 1.0558883 4290033281
-0.042649876 -0.60459387 1.0558257 4290165123
-0.041003834 -0.60456681 1.0557632 4290296454
-0.039362211 -0.60459399 1.056726 4290296717
-0.037717108 -0.60456693 1.0566635 4290428052
-0.036072005 -0.60453993 1.056601 4290559644
-0.034426901 -0.60451293 1.0565386 4290757027
-0.032790039 -0.60454005 1.0575014 4290757029
-0.031145889 -0.60451305 1.057439 4290691494
-0.029501732 -0.60448599 1.0573765 4290560168
-0.027857583 -0.60445893 1.057314 4290362789
-0.026213426 -0.60443193 1.0572516 4290231203
-0.024569277 -0.60440493 1.0571891 4290099616
-0.022911195 -0.60432357 1.0561011 4290231201
-0.021266092 -0.60429657 1.0560386 4290296993
-0.019620989 -0.6042695 1.055976 4290428578
-0.017975885 -0.60424244 1.0559136 4290363041
-0.016330797 -0.60421538 1.0558511 4290362786
-0.014704373 -0.60424268 1.0568143 4290428321
-0.013040591 -0.60416132 1.0557261 4290494111
-0.011395488 -0.60413426 1.0556636 4290494362
-0.0097503848 -0.60410726 1.0556011 4290494099
-0.008127775 -0.60413462 1.0565646 4290231178
-0.0064367466 -0.60399854 1.05445 4290033283
-0.0047663115 -0.603917 1.0533618 4289770366
-0.003068652 -0.60378075 1.0512469 4289704574
-0.0013409071 -0.60358995 1.0481062 4289836157
0.00036532059 -0.60345364 1.0459912 4290099328
0.002075348 -0.6033172 1.0438759 4290230911
-0.074071229 -0.60616171 1.0463159 4282863418
-0.07237193 -0.60629356 1.0493275 4283390013
-0.070691973 -0.60637236 1.0513144 4285364054
-0.068965107 -0.60666335 1.0574008 4287468908
-0.067320004 -0.60663629 1.0573382 4288456306
-0.065674901 -0.60660928 1.0572758 4289180021
-0.064029798 -0.60658228 1.0572133 4289443442
-0.062375832 -0.60660821 1.0581758 4289706355
-0.060731683 -0.60658121 1.0581133 4289903988
-0.059087534 -0.60655415 1.0580509 4290363513
-0.05744338 -0.60652709 1.0579884 4290495099
-0.055799231 -0.60650009 1.0579259 4290560382
-0.054155078 -0.60647309 1.0578635 4290428796
-0.052510928 -0.60644603 1.057801 4290428799
-0.050866779 -0.60641903 1.0577385 4290165372
-0.049223896 -0.60633886 1.0566509 4290033789
-0.047578793 -0.6063118 1.0565884 4290165377
-0.04593369 -0.60628474 1.0565258 4290230918
-0.044288594 -0.60625768 1.0564634 4290296712
-0.042643499 -0.60623068 1.0564009 4290428043
-0.040998396 -0.60620362 1.0563384 4290362254
-0.039353292 -0.60617661 1.0562758 4290296467
-0.037708189 -0.60614955 1.0562134 4290362009
-0.036063086 -0.60612249 1.0561509 4290428319
-0.03442527 -0.60614872 1.057114 4290625443
-0.03278112 -0.60612172 1.0570515 4290625702
-0.03114615 -0.60614812 1.0580149 4290691495
-0.029502947 -0.60612106 1.0579524 4290625705
-0.027859751 -0.60609406 1.0578901 4290362789
-0.026204508 -0.6060136 1.0568017 4290165152
-0.024560358 -0.6059866 1.0567392 4290033566
-0.022916209 -0.60595953 1.0566769 4290165150
-0.02127206 -0.60593247 1.0566144 4290362786
-0.01962791 -0.60590547 1.0565519 4290494372
-0.017983761 -0.60587847 1.0564895 4290559908
-0.016339611 -0.60585141 1.056427 4290494374
-0.014695454 -0.60582435 1.0563645 4290494371
-0.013051305 -0.60579735 1.0563021 4290494112
-0.011407156 -0.60577035 1.0562396 4290494363
-0.0097630061 -0.60574329 1.0561771 4290494100
-0.0081413426 -0.60576987 1.0571409 4290362510
-0.0064512677 -0.6056357 1.0550261 4290296458
-0.0047817864 -0.60555494 1.0539372 4290230664
-0.0031103827 -0.60547429 1.0528486 4290099077
-0.0013319515 -0.60517895 1.0476543 4290099329
0.00037429109 -0.60504448 1.0455387 4290165121
0.0020843185 -0.60490978 1.0434231 4290165374
-0.074046716 -0.6078065 1.0468881 4282797625
-0.072362974 -0.60788345 1.0488752 4283455551
-0.070669405 -0.60801256 1.0518879 4285429591
-0.068943523 -0.608298 1.0579758 4287271786
-0.067299373 -0.608271 1.0579133 4288127342
-0.065655224 -0.60824394 1.0578508 4288982641
-0.064011067 -0.60821688 1.0577884 4289377649
-0.062366918 -0.60818988 1.0577259 4289574767
-0.060714845 -0.60821509 1.0586889 4289772400
-0.059071649 -0.60818803 1.0586264 4290297976
-0.057428446 -0.60816103 1.0585641 4290495098
-0.055790316 -0.60808176 1.057476 4290494590
-0.054146167 -0.60805476 1.0574137 4290363004
-0.052502017 -0.6080277 1.0573512 4290362750
-0.050857868 -0.6080007 1.0572888 4290165629
-0.049213711 -0.60797369 1.0572263 4290165119
-0.047569562 -0.60794663 1.0571638 4290362498
-0.045924772 -0.60786736 1.0560758 4290428295
-0.044279676 -0.6078403 1.0560132 4290362504
-0.04263458 -0.60781324 1.0559508 4290362762
-0.040992964 -0.60783851 1.056914 4290296716
-0.039348815 -0.60781145 1.0568515 4290230674
-0.037704658 -0.60778445 1.056789 4290296215
-0.036060508 -0.60775745 1.0567266 4290493596
-0.034423646 -0.60778284 1.0576901 4290559391
-0.032780442 -0.60775584 1.0576277 4290494113
-0.031137247 -0.60772884 1.0575653 4290559906
-0.029494043 -0.60770178 1.0575029 4290559653
-0.027850848 -0.60767484 1.0574404 4290362274
-0.026207637 -0.60764778 1.0573781 4290099102
-0.024564441 -0.60762078 1.0573156 4289967772
-0.022907298 -0.6075412 1.056227 4290099357
-0.021263149 -0.60751414 1.0561645 4290362529
-0.019618999 -0.60748714 1.056102 4290559652
-0.01797485 -0.60746014 1.0560396 4290625701
-0.01634844 -0.60748571 1.0570035 4290559653
-0.014705237 -0.60745871 1.056941 4290494113
-0.013062034 -0.60743165 1.0568787 4290493855
-0.011418838 -0.60740471 1.0568162 4290494107
-0.0097756349 -0.60737765 1.0567538 4290559637
-0.0081549324 -0.6074034 1.0577178 4290494097
-0.0064657964 -0.60727096 1.0556024 4290493839
-0.0047972463 -0.60719121 1.0545135 4290493836
-0.0031268038 -0.60711145 1.0534244 4290493835
-0.0013229959 -0.60676789 1.0472023 4290428294
0.00038325414 -0.60663521 1.0450863 4290296708
0.0021214969 -0.60644972 1.0419434 4290231168
-0.074037746 -0.60939825 1.0464354 4282797626
-0.072339445 -0.60952449 1.0494485 4283455552
-0.070646837 -0.60965085 1.0524616 4285363800
-0.068921939 -0.60993087 1.0585514 4287139946
-0.067278743 -0.60990381 1.058489 4288127344
-0.06563554 -0.60987687 1.0584265 4288916594
-0.063982531 -0.60990107 1.0593896 4289180271
-0.062340278 -0.60987413 1.0593271 4289443182
-0.060698029 -0.60984707 1.0592648 4289772145
-0.059055772 -0.60982013 1.0592024 4290166135
-0.057419538 -0.60974181 1.0581144 4290363514
-0.055776339 -0.60971475 1.0580521 4290363003
-0.054133143 -0.60968775 1.0579896 4290297212
-0.05248994 -0.60966074 1.0579271 4290296958
-0.050846737 -0.60963368 1.0578648 4290231168
-0.049203534 -0.60960674 1.0578023 4290296706
-0.04756033 -0.60957968 1.0577399 4290428293
-0.045917135 -0.60955268 1.0576775 4290494090
-0.044273932 -0.60952568 1.057615 4290428043
-0.042630736 -0.60949862 1.0575526 4290362765
-0.040987533 -0.60947168 1.0574902 4290296464
-0.039348785 -0.60949612 1.0584538 4290296467
-0.037706528 -0.60946918 1.0583913 4290296471
-0.036064278 -0.60944211 1.058329 4290427803
-0.034422029 -0.60941517 1.0582666 4290427804
-0.032779779 -0.60938817 1.0582043 4290428061
-0.031146716 -0.60941267 1.059168 4290362268
-0.029505413 -0.60938573 1.0591056 4290427808
-0.027864117 -0.60935873 1.0590433 4290362271
-0.026210774 -0.60928017 1.0579547 4290164893
-0.024568524 -0.60925317 1.0578923 4290098844
-0.022926275 -0.60922617 1.05783 4290164894
-0.021269131 -0.60914749 1.0567411 4290362273
-0.019625928 -0.60912049 1.0566788 4290493861
-0.017982733 -0.60909343 1.0566163 4290559652
-0.016339529 -0.60906649 1.0565538 4290559652
-0.014696326 -0.60903943 1.0564915 4290559649
-0.013072778 -0.60906422 1.0574557 4290625185
-0.011430528 -0.60903716 1.0573932 4290559388
-0.0097882785 -0.60901022 1.0573308 4290493846
-0.0081685223 -0.60903496 1.0582951 4290428305
-0.006503772 -0.60895622 1.057206 4290493839
-0.0048371293 -0.60887736 1.0561169 4290493836
-0.0031685792 -0.6087985 1.0550276 4290559883
-0.0013666265 -0.60846055 1.0488042 4290559881
0.00036497042 -0.60827792 1.0456606 4290559879
0.002102267 -0.60809505 1.0425171 4290428548
-0.074028775 -0.61098993 1.0459827 4282928957
-0.07233049 -0.61111349 1.0489966 4283323966
-0.070651516 -0.6111868 1.050985 4285429592
-0.068913035 -0.61151165 1.0581018 4287074154
-0.067269832 -0.61148465 1.0580394 4288061295
-0.065626636 -0.61145759 1.057977 4288719471
-0.063973621 -0.61148095 1.0589402 4289048685
-0.062331375 -0.61145389 1.0588778 4289508975
-0.060689125 -0.61142695 1.0588155 4289706352
-0.059046872 -0.61139989 1.0587531 4290034547
-0.057410631 -0.61132252 1.0576649 4290297719
-0.055767432 -0.61129558 1.0576024 4290231414
-0.054128345 -0.61121809 1.0565139 4290297209
-0.052484196 -0.61119103 1.0564516 4290363260
-0.050840046 -0.61116403 1.0563891 4290428543
-0.04919463 -0.61118746 1.0573528 4290428548
-0.047551427 -0.61116052 1.0572903 4290494087
-0.045908231 -0.61113346 1.0572278 4290428555
-0.044265028 -0.61110646 1.0571655 4290362510
-0.042624373 -0.61113 1.0581292 4290428306
-0.040982123 -0.61110294 1.0580668 4290362260
-0.039339881 -0.611076 1.0580045 4290362262
-0.037697624 -0.61104894 1.057942 4290362263
-0.036055375 -0.611022 1.0578797 4290362010
-0.034413125 -0.61099494 1.0578173 4290296218
-0.032779116 -0.6110186 1.0587813 4290230425
-0.03113782 -0.6109916 1.0587189 4290033046
-0.029496517 -0.61096466 1.0586566 4290098585
-0.027855221 -0.61093765 1.0585942 4290230171
-0.02620187 -0.61085999 1.0575054 4290295966
-0.024559621 -0.61083299 1.057443 4290361759
-0.022917371 -0.61080599 1.0573806 4290361762
-0.021260228 -0.61072826 1.0562916 4290493092
-0.019617025 -0.61070126 1.0562291 4290559140
-0.017973829 -0.61067426 1.0561668 4290559139
-0.016330626 -0.6106472 1.0561043 4290559139
-0.014687423 -0.61062026 1.0560418 4290690722
-0.013063874 -0.61064398 1.0570064 4290690722
-0.011421625 -0.61061704 1.0569439 4290559387
-0.009779375 -0.61058998 1.0568815 4290428052
-0.0081596263 -0.61061388 1.0578461 4290362511
-0.0064948685 -0.61053604 1.0567567 4290428299
-0.0048282258 -0.61045814 1.0556674 4290428297
-0.0031596683 -0.61038017 1.0545778 4290494087
-0.0013576783 -0.6100477 1.0483527 4290559879
0.00034667179 -0.60991871 1.0462357 4290691465
0.0020548366 -0.60978961 1.0441185 4290757257
-0.074035324 -0.61253232 1.044504 4282731834
-0.0723361 -0.61265314 1.0475187 4282863415
-0.070642576 -0.61277395 1.0505337 4285232213
-0.068904132 -0.61309242 1.0576522 4287008359
-0.067260921 -0.61306536 1.0575898 4287732586
-0.065617725 -0.61303836 1.0575273 4288456300
-0.063964725 -0.61306077 1.0584909 4288917099
-0.062322471 -0.61303377 1.0584285 4289311598
-0.060680222 -0.61300677 1.0583662 4289508974
-0.059037969 -0.61297977 1.0583037 4289968754
-0.057401724 -0.6129033 1.0572152 4290297974
-0.055758525 -0.6128763 1.0571529 4290297461
-0.054119427 -0.61279976 1.0560641 4290429049
-0.052475277 -0.6127727 1.0560017 4290560637
-0.050831128 -0.61274564 1.0559392 4290691970
-0.049185719 -0.61276823 1.0569031 4290625670
-0.047542516 -0.61274123 1.0568408 4290494088
-0.04589932 -0.61271417 1.0567783 4290428302
-0.044257727 -0.61273682 1.0577422 4290493843
-0.042615477 -0.61270982 1.0576799 4290428052
-0.040973227 -0.61268282 1.0576175 4290428054
-0.039330985 -0.61265582 1.0575551 4290427801
-0.037688728 -0.61262882 1.0574927 4290427801
-0.036046479 -0.61260182 1.0574304 4290296218
-0.034411523 -0.61262453 1.0583946 4290230425
-0.03277022 -0.61259753 1.0583322 4290033047
-0.031128924 -0.61257052 1.0582699 4289769875
-0.029487621 -0.61254358 1.0582075 4289769620
-0.027846325 -0.61251658 1.0581452 4290098585
-0.026192974 -0.61243987 1.0570561 4290361760
-0.024550725 -0.61241281 1.0569937 4290493346
-0.022908475 -0.61238587 1.0569313 4290558886
-0.021251317 -0.61230898 1.055842 4290624679
-0.019608114 -0.61228204 1.0557796 4290559140
-0.017964918 -0.61225498 1.0557171 4290559139
-0.016321715 -0.61222798 1.0556548 4290493345
-0.014678512 -0.61220098 1.0555923 4290624927
-0.013054978 -0.61222386 1.0565569 4290625181
-0.011412729 -0.61219686 1.0564946 4290428054
-0.0097920261 -0.61221981 1.0574594 4290362000
-0.008173231 -0.6122427 1.0584244 4290362251
-0.0064859726 -0.61211586 1.0563074 4290428296
-0.0048193149 -0.61203885 1.0552177 4290428293
-0.0031761117 -0.61201191 1.0551554 4290362755
-0.0013750605 -0.61168486 1.0489285 4290428548
0.00032836571 -0.61155772 1.0468111 4290691465
0.0020637996 -0.61138046 1.0436661 4290888843
-0.074041843 -0.61407661 1.0430251 4282271282
-0.072341688 -0.61419463 1.0460404 4282402864
-0.070647232 -0.61431271 1.0490561 4284903248
-0.068895221 -0.61467314 1.0572026 4286810981
-0.067252018 -0.61464608 1.0571402 4287535207
-0.065598071 -0.61466765 1.0581039 4288258665
-0.063946024 -0.61468911 1.0590678 4288719466
-0.06230472 -0.61466211 1.0590055 4289048172
-0.060663421 -0.61463511 1.0589432 4289443183
-0.059022121 -0.61460817 1.0588808 4290034551
-0.057386819 -0.61453265 1.0577921 4290232185
-0.055744566 -0.61450565 1.0577296 4290494587
-0.054106418 -0.61443001 1.0566409 4290626432
-0.052463215 -0.61440301 1.0565784 4290691971
-0.050820012 -0.61437595 1.0565159 4290823303
-0.049175572 -0.61439764 1.0574801 4290691464
-0.04753333 -0.61437064 1.0574178 4290428297
-0.045891728 -0.61439228 1.058382 4290493584
-0.044250425 -0.61436534 1.0583196 4290625174
-0.042609122 -0.61433834 1.0582573 4290493846
-0.040971328 -0.61436009 1.0592217 4290428055
-0.039330978 -0.61433309 1.0591595 4290427801
-0.037690628 -0.61430609 1.0590972 4290493594
-0.036050279 -0.61427915 1.0590348 4290427804
-0.034409929 -0.61425221 1.0589725 4290230425
-0.032769579 -0.61422521 1.0589103 4289966999
-0.031120028 -0.61414945 1.0578208 4289769620
-0.029488888 -0.61417127 1.0587856 4289769620
-0.027848531 -0.61414433 1.0587233 4290098585
-0.026196133 -0.61406851 1.0576338 4290427554
-0.02455483 -0.61404157 1.0575714 4290559140
-0.022913534 -0.61401457 1.0575091 4290624679
-0.02125733 -0.61393869 1.0564196 4290690471
-0.019615073 -0.61391175 1.0563571 4290624933
-0.017972823 -0.61388469 1.0562948 4290559138
-0.016330574 -0.61385775 1.0562325 4290559136
-0.014707033 -0.61387968 1.0571973 4290559132
-0.013065737 -0.61385268 1.057135 4290428053
-0.011424433 -0.61382568 1.0570726 4290230927
-0.0098046921 -0.61384773 1.0580379 4290230667
-0.0081868507 -0.61386979 1.0590031 4290230919
-0.0065239929 -0.61379373 1.0579132 4290230916
-0.0048592351 -0.61371779 1.0568233 4290230913
-0.0031925775 -0.61364174 1.0557333 4290099583
-0.0014450662 -0.61341834 1.0515603 4290231168
0.00025552139 -0.61329305 1.0494425 4290494084
0.0019599013 -0.61316776 1.0473245 4290691720
-0.074048363 -0.61562264 1.0415456 4282139695
-0.072332725 -0.61578542 1.045588 4282468657
-0.070638284 -0.61590075 1.0486044 4284903248
-0.06888631 -0.61625385 1.056753 4286613601
-0.067231417 -0.61627448 1.0577171 4287403622
-0.065589167 -0.61624748 1.0576546 4288127078
-0.063937128 -0.61626804 1.0586188 4288522343
-0.062295824 -0.61624104 1.0585564 4288982380
-0.060654525 -0.61621404 1.0584941 4289442929
-0.059013225 -0.6161871 1.0584317 4290100346
-0.057371926 -0.61616009 1.0583694 4290560641
-0.055730626 -0.61613309 1.0583071 4290691971
-0.054093417 -0.61605847 1.057218 4290823302
-0.052451175 -0.61603153 1.0571556 4290757511
-0.050808918 -0.61600447 1.0570931 4290823050
-0.049165431 -0.61602521 1.0580575 4290625673
-0.047524128 -0.61599821 1.0579953 4290296456
-0.045882832 -0.61597121 1.0579329 4290362252
-0.044243138 -0.61599201 1.0588976 4290625172
-0.042602781 -0.61596501 1.0588353 4290625432
-0.040962439 -0.61593807 1.0587729 4290559641
-0.039322089 -0.61591113 1.0587107 4290559387
-0.03768174 -0.61588418 1.0586483 4290625180
-0.03604139 -0.61585718 1.058586 4290559390
-0.034401041 -0.61583018 1.0585238 4290230425
-0.032760691 -0.61580324 1.0584614 4289967000
-0.031120341 -0.6157763 1.0583991 4289901207
-0.029479999 -0.61574936 1.0583367 4290032792
-0.027839642 -0.61572236 1.0582745 4290230172
-0.0261993 -0.61569536 1.0582122 4290493347
-0.024558943 -0.61566842 1.0581498 4290493347
-0.022918601 -0.61564147 1.0580876 4290493093
-0.021263327 -0.61556649 1.0569977 4290559140
-0.019622032 -0.61553955 1.0569353 4290559139
-0.017980736 -0.61551255 1.056873 4290559135
-0.016339432 -0.61548555 1.0568106 4290493595
-0.014698137 -0.61545861 1.0567483 4290428053
-0.013056841 -0.61543161 1.0566859 4290296719
-0.011436146 -0.61545271 1.0576513 4290165129
-0.0098173656 -0.61547387 1.0586169 4290164871
-0.0081779696 -0.61544693 1.0585545 4290165124
-0.0065151043 -0.61537182 1.0574644 4290165122
-0.0048747472 -0.61534482 1.0574021 4290099327
-0.0032090358 -0.61526972 1.0563118 4290033535
-0.0014361404 -0.6150018 1.0511099 4290165121
0.00023718551 -0.61492658 1.0500196 4290362499
0.0019406267 -0.61480314 1.0479009 4290559878
-0.074054867 -0.61717051 1.0400655 4282403122
-0.072338298 -0.6173296 1.044109 4283323966
-0.070629328 -0.61748886 1.0481527 4285495385
-0.068877406 -0.61783469 1.0563035 4286547807
-0.067222521 -0.6178543 1.0572677 4287074657
-0.065580264 -0.6178273 1.0572053 4287863908
-0.063918434 -0.61789358 1.0591966 4288390758
-0.062278084 -0.61786664 1.0591342 4289113966
-0.060637735 -0.61783969 1.0590719 4289508722
-0.058997385 -0.61781275 1.0590096 4290166139
-0.057357039 -0.61778575 1.0589473 4290758020
-0.055721726 -0.61771202 1.057858 4290823559
-0.05408043 -0.61768508 1.0577956 4290889096
-0.052439127 -0.61765802 1.0577333 4290757257
-0.050797831 -0.61763108 1.0576708 4290691720
-0.049156535 -0.61760408 1.0576086 4290559879
-0.047514942 -0.61762393 1.0585734 4290230661
-0.045874584 -0.61759698 1.0585111 4290296457
-0.044234242 -0.61757004 1.0584488 4290559377
-0.042593885 -0.61754304 1.0583864 4290625432
-0.040953543 -0.6175161 1.0583242 4290691226
-0.039313193 -0.6174891 1.0582619 4290690972
-0.037672844 -0.61746216 1.0581995 4290690973
-0.036038857 -0.61748219 1.0591648 4290625183
-0.034392145 -0.61740822 1.058075 4290296218
-0.032751795 -0.61738122 1.0580126 4290033049
-0.031111445 -0.61735427 1.0579503 4290098841
-0.029471103 -0.61732733 1.057888 4290230170
-0.027830746 -0.61730039 1.0578257 4290362012
-0.026202474 -0.61732042 1.058791 4290493345
-0.024550047 -0.61724639 1.057701 4290427551
-0.022909705 -0.61721945 1.0576388 4290427295
-0.021269348 -0.61719251 1.0575764 4290493342
-0.019629005 -0.61716557 1.0575141 4290493340
-0.017988648 -0.61713856 1.0574517 4290493593
-0.016348306 -0.61711156 1.0573895 4290361749
-0.014707949 -0.61708462 1.0573272 4290296463
-0.013067607 -0.61705768 1.0572648 4290296713
-0.01142725 -0.61703074 1.0572026 4290231173
-0.009808477 -0.61705095 1.0581683 4290296453
-0.0081690811 -0.61702394 1.0581059 4290230916
-0.0065296851 -0.616997 1.0580437 4290165122
-0.0048658513 -0.61692286 1.0569533 4290099329
-0.0032255091 -0.61689591 1.056891 4290099330
-0.0014798678 -0.61667985 1.0527159 4290296707
0.0002461113 -0.61651099 1.049569 4290494084
0.0019495599 -0.61638939 1.0474498 4290559878
-0.074092343 -0.61862898 1.0365313 4282732086
-0.072372943 -0.61878431 1.0405757 4284310860
-0.07064756 -0.61898553 1.0456471 4286021984
-0.068881139 -0.61936963 1.0548269 4286547807
-0.067225292 -0.61938834 1.0557914 4286745692
-0.06557136 -0.61940718 1.056756 4287469154
-0.063909546 -0.61947161 1.0587478 4288258919
-0.062269192 -0.61944461 1.0586854 4289245295
-0.060628843 -0.61941767 1.0586231 4289640051
-0.058988493 -0.61939073 1.0585608 4290165881
-0.057348147 -0.61936378 1.0584985 4290626687
-0.055707797 -0.61933678 1.0584362 4290823556
-0.054071527 -0.61926401 1.0573466 4290889094
-0.052427094 -0.61928284 1.0583116 4290625925
-0.050786752 -0.6192559 1.0582492 4290494340
-0.049146395 -0.61922896 1.0581869 4290428291
-0.047506053 -0.61920196 1.0581247 4290296708
-0.045865696 -0.61917496 1.0580623 4290164871
-0.044226963 -0.61919403 1.0590276 4290296206
-0.042587567 -0.61916709 1.0589653 4290493846
-0.040948171 -0.61914009 1.058903 4290559640
-0.039308768 -0.61911315 1.0588408 4290559641
-0.037669372 -0.61908621 1.0587784 4290625179
-0.036029968 -0.61905926 1.0587162 4290625183
-0.034383256 -0.61898625 1.0576261 4290493597
-0.032742906 -0.61895925 1.0575638 4290230171
-0.031102557 -0.61893231 1.0575014 4290230425
-0.029462215 -0.61890531 1.0574392 4290296217
-0.027821857 -0.61887836 1.0573769 4290362009
-0.026181515 -0.61885142 1.0573145 4290427549
-0.024541158 -0.61882442 1.0572522 4290362011
-0.022900816 -0.61879742 1.0571899 4290361754
-0.021260459 -0.61877048 1.0571276 4290427544
-0.019620117 -0.61874354 1.0570652 4290427797
-0.01797976 -0.6187166 1.057003 4290361746
-0.016339418 -0.6186896 1.0569407 4290230416
-0.01469906 -0.6186626 1.0568783 4290361996
-0.013058718 -0.61863565 1.056816 4290362503
-0.011418361 -0.61860871 1.0567538 4290362499
-0.0097995885 -0.61862803 1.0577197 4290296707
-0.0081601925 -0.61860108 1.0576575 4290165123
-0.0065207966 -0.61857414 1.0575951 4290099330
-0.0048569627 -0.61850083 1.0565045 4290099330
-0.0032166205 -0.61847389 1.0564421 4290230917
-0.001470957 -0.61826146 1.0522661 4290428294
0.00022776052 -0.61814177 1.0501467 4290559879
0.0019302778 -0.61802197 1.0480273 4290560133
-0.074098825 -0.62018228 1.0350497 4282534705
-0.072378486 -0.62033403 1.039095 4284508493
-0.070665754 -0.6204859 1.0431408 4285824604
-0.068872228 -0.62095129 1.054377 4286481758
-0.067216381 -0.62096912 1.0553418 4286613850
-0.065573186 -0.62094212 1.0552795 4287205725
-0.063910432 -0.62100482 1.0572716 4288192870
-0.0622603 -0.62102264 1.0582366 4289310576
-0.06061995 -0.62099564 1.0581744 4289705586
-0.058979601 -0.6209687 1.058112 4289968244
-0.057339255 -0.62094176 1.0580497 4290363256
-0.055703934 -0.62086987 1.0569599 4290626173
-0.054062631 -0.62084293 1.0568974 4290691967
-0.052421328 -0.62081587 1.0568352 4290494336
-0.050777856 -0.62083387 1.0578004 4290296959
-0.049137499 -0.62080693 1.0577381 4290230913
-0.047497157 -0.62077999 1.0576758 4290230916
-0.0458568 -0.62075299 1.0576135 4290099077
-0.044218075 -0.62077105 1.058579 4290099081
-0.042578679 -0.62074411 1.0585167 4290296723
-0.040939283 -0.62071717 1.0584544 4290493848
-0.039299879 -0.62069023 1.0583922 4290493851
-0.037660483 -0.62066329 1.0583299 4290559643
-0.03602108 -0.62063634 1.0582676 4290625183
-0.03437436 -0.62056422 1.0571773 4290559390
-0.03273401 -0.62053728 1.057115 4290361757
-0.031093661 -0.62051034 1.0570527 4290295963
-0.029453319 -0.62048334 1.0569904 4290296220
-0.027812961 -0.62045634 1.056928 4290362011
-0.026172619 -0.6204294 1.0568657 4290427548
-0.024532262 -0.62040246 1.0568035 4290427547
-0.02289192 -0.62037545 1.0567411 4290427289
-0.021251563 -0.62034851 1.0566788 4290427542
-0.019611221 -0.62032151 1.0566165 4290361746
-0.017970864 -0.62029457 1.0565542 4290230413
-0.016330522 -0.62026763 1.0564919 4290230413
-0.014690164 -0.62024063 1.0564295 4290296459
-0.013049822 -0.62021369 1.0563673 4290362249
-0.011409465 -0.62018669 1.0563049 4290296710
-0.0097906999 -0.62020516 1.0572712 4290296709
-0.008151304 -0.62017816 1.0572089 4290165121
-0.0064884238 -0.6201058 1.056118 4290099328
-0.0048480667 -0.6200788 1.0560557 4290165120
-0.0032077245 -0.62005186 1.0559933 4290230915
-0.0014620386 -0.61984313 1.0518162 4290428292
0.00023668632 -0.61972523 1.0496963 4290559878
0.001939211 -0.61960727 1.0475764 4290494340
-0.074136242 -0.62164986 1.0315129 4282139945
-0.072384022 -0.62188554 1.0376139 4283521596
-0.070656784 -0.62207758 1.042688 4285100879
-0.068875924 -0.62248921 1.0528997 4286152792
-0.06721916 -0.62250596 1.0538647 4286613338
-0.065564275 -0.62252289 1.0548298 4287205469
-0.063901529 -0.62258375 1.0568225 4288126822
-0.062260233 -0.62255669 1.0567602 4289178991
-0.060611058 -0.62257367 1.0577255 4289639793
-0.058970708 -0.62254673 1.0576632 4289771120
-0.057336334 -0.62247574 1.0565732 4290100337
-0.055695035 -0.6224488 1.0565107 4290297716
-0.054053735 -0.62242186 1.0564483 4290494840
-0.052412432 -0.6223948 1.056386 4290429050
-0.050768968 -0.62241191 1.0573516 4290231420
-0.049128611 -0.62238491 1.0572894 4290230913
-0.047488268 -0.62235796 1.057227 4290296709
-0.045847911 -0.62233102 1.0571647 4290230917
-0.044209193 -0.62234819 1.0581305 4290164871
-0.042569797 -0.62232125 1.0580682 4290230927
-0.040930402 -0.62229431 1.0580059 4290428054
-0.039290998 -0.62226737 1.0579436 4290559390
-0.037651602 -0.62224042 1.0578814 4290559390
-0.036005821 -0.6221692 1.0567908 4290625182
-0.034365471 -0.6221422 1.0567285 4290559389
-0.032725122 -0.62211525 1.0566661 4290427549
-0.031075541 -0.62204409 1.0555755 4290361758
-0.029434238 -0.62201709 1.0555131 4290361760
-0.027804073 -0.62203437 1.0564792 4290361760
-0.026163731 -0.62200737 1.056417 4290361758
-0.024523374 -0.62198043 1.0563546 4290362010
-0.022883032 -0.62195349 1.0562923 4290361751
-0.021242674 -0.62192655 1.0562299 4290295954
-0.019602332 -0.62189955 1.0561677 4290230414
-0.017961975 -0.62187254 1.0561054 4290033033
-0.016321633 -0.6218456 1.056043 4290164617
-0.014681276 -0.62181866 1.0559808 4290296202
-0.013040934 -0.62179172 1.0559185 4290362252
-0.011400577 -0.62176472 1.0558561 4290362250
-0.0097818188 -0.62178224 1.0568227 4290296710
-0.0081424229 -0.62175524 1.0567603 4290099327
-0.0064795353 -0.62168384 1.0556692 4290099327
-0.0048391782 -0.62165684 1.0556068 4290099583
-0.0031734444 -0.62158537 1.0545156 4290099328
-0.001426775 -0.62138039 1.0503376 4290296963
0.00027289614 -0.62126422 1.0482172 4290428548
0.0020046197 -0.62110353 1.0450675 4290428291
-0.07409627 -0.62333745 1.0331124 4281876772
-0.072360508 -0.62352479 1.0381875 4282205478
-0.070647821 -0.62366927 1.0422354 4284179521
-0.068879634 -0.6240288 1.0514219 4285823572
-0.06722191 -0.62404466 1.0523871 4286547803
-0.065566093 -0.62406063 1.0533524 4287139679
-0.063892633 -0.62416267 1.0563734 4287863652
-0.062242515 -0.62417865 1.057339 4289047151
-0.060602166 -0.62415171 1.0572767 4289639538
-0.058954902 -0.6241678 1.0582424 4289902706
-0.05732147 -0.62409776 1.057152 4290034543
-0.055681121 -0.62407076 1.0570898 4290166127
-0.054040771 -0.62404382 1.0570275 4290363506
-0.052400414 -0.62401688 1.0569651 4290363253
-0.050760072 -0.62398994 1.0569029 4290297466
-0.049118508 -0.62400615 1.0578687 4290428546
-0.047479104 -0.62397921 1.0578065 4290494343
-0.045839708 -0.62395221 1.0577441 4290362501
-0.044200305 -0.62392527 1.0576819 4290164868
-0.042563502 -0.62394154 1.0586478 4290165131
-0.040925052 -0.6239146 1.0585855 4290362514
-0.039286602 -0.62388766 1.0585233 4290493848
-0.037648153 -0.62386072 1.0584611 4290559386
-0.036009703 -0.62383378 1.0583988 4290559389
-0.034363922 -0.62376356 1.0573082 4290493597
-0.032724518 -0.62373662 1.057246 4290427549
-0.031085115 -0.62370968 1.0571837 4290427550
-0.029445719 -0.62368274 1.0571214 4290427551
-0.027795177 -0.6236124 1.0560304 4290362015
-0.026154835 -0.6235854 1.0559682 4290427550
-0.024514478 -0.6235584 1.0559058 4290296217
-0.022874136 -0.62353146 1.0558435 4290230163
-0.021233778 -0.62350452 1.0557812 4290164365
-0.019593436 -0.62347758 1.0557189 4290033289
-0.017953079 -0.62345058 1.0556566 4289967494
-0.016312737 -0.62342358 1.0555942 4290033286
-0.01467238 -0.62339664 1.055532 4290164872
-0.013032038 -0.62336969 1.0554696 4290296459
-0.011412326 -0.62338626 1.0564364 4290362249
-0.0097729303 -0.62335932 1.0563741 4290296710
-0.0081335343 -0.62333238 1.0563118 4290099327
-0.0064706393 -0.62326181 1.0552204 4289967741
-0.0048302822 -0.62323487 1.055158 4289967740
-0.00318994 -0.62320793 1.0550958 4289967741
-0.0013915263 -0.62291932 1.0488582 4290165377
0.00030912086 -0.622805 1.0467372 4290296705
0.0020135678 -0.62269068 1.0446161 4290296960
-0.07405632 -0.62502146 1.0347133 4281942307
-0.072322488 -0.62520421 1.0397897 4281547290
-0.07062529 -0.62530309 1.0428106 4283192368
-0.068883315 -0.62557018 1.0499437 4285363022
-0.067212991 -0.62562728 1.051937 4286350170
-0.065557182 -0.6256423 1.0529026 4287073633
-0.063873976 -0.62578362 1.0569525 4287666020
-0.062233623 -0.62575662 1.0568902 4288981362
-0.060585413 -0.62577188 1.0578561 4289705334
-0.058946013 -0.62574494 1.0577939 4290099831
-0.057306614 -0.625718 1.0577316 4290165874
-0.055667214 -0.62569106 1.0576693 4290100334
-0.054027822 -0.62566411 1.0576071 4290297713
-0.052388411 -0.62563717 1.0575447 4290429300
-0.050749015 -0.62561017 1.0574825 4290429049
-0.049109619 -0.62558323 1.0574203 4290494592
-0.047470216 -0.62555629 1.0573579 4290494339
-0.04583082 -0.62552929 1.0572957 4290362754
-0.044193063 -0.62554467 1.0582618 4290165122
-0.042554621 -0.62551773 1.0581995 4290099335
-0.040916171 -0.62549078 1.0581373 4290230669
-0.039282206 -0.62550616 1.0591037 4290362258
-0.03764471 -0.62547922 1.0590415 4290493590
-0.036007214 -0.62545228 1.0589793 4290559388
-0.034362372 -0.62538302 1.0578883 4290493596
-0.032723922 -0.62535608 1.057826 4290427804
-0.031076226 -0.62528682 1.0567352 4290362011
-0.02943683 -0.62525982 1.0566729 4290427549
-0.027797427 -0.62523288 1.0566106 4290427805
-0.026158039 -0.62520593 1.0565484 4290427549
-0.024518635 -0.62517893 1.056486 4290296215
-0.022879232 -0.62515199 1.0564238 4290164366
-0.021239836 -0.62512505 1.0563614 4290099081
-0.019600432 -0.62509811 1.0562992 4290099078
-0.017961036 -0.62507117 1.056237 4289967492
-0.01632164 -0.62504423 1.0561746 4289967746
-0.014682245 -0.62501729 1.0561124 4290033538
-0.013042841 -0.62499034 1.0560501 4290164868
-0.011424091 -0.62500596 1.057017 4290230916
-0.0097856484 -0.62497902 1.0569546 4290230916
-0.0081471987 -0.62495208 1.0568924 4290033535
-0.0064852498 -0.62488252 1.055801 4289901949
-0.0048213936 -0.62481284 1.0547093 4289836412
-0.0031810515 -0.6247859 1.054647 4289967997
-0.0013826005 -0.62450278 1.0484078 4290099325
0.00031805411 -0.62439036 1.0462863 4290099580
0.0020507611 -0.62423509 1.0431352 4290165627
-0.068899617 -0.62707233 1.0474364 4284705093
-0.067227393 -0.62712753 1.0494305 4285955413
-0.065548271 -0.62722397 1.0524527 4286744413
-0.06386508 -0.62736166 1.0565038 4287402850
-0.062215924 -0.6273759 1.0574698 4288783986
-0.060568664 -0.62739015 1.0584358 4289705080
-0.058930214 -0.6273632 1.0583736 4290165624
-0.057291768 -0.62733626 1.0583113 4290165875
-0.055653319 -0.62730932 1.0582491 4290231921
-0.054014873 -0.62728238 1.0581869 4290297713
-0.05237643 -0.6272555 1.0581247 4290363507
-0.050737981 -0.62722856 1.0580624 4290429047
-0.049099524 -0.62720162 1.0580002 4290494588
-0.047461081 -0.62717468 1.057938 4290494592
-0.045822632 -0.62714779 1.0578756 4290362753
-0.044184182 -0.62712085 1.0578134 4290231170
-0.042548332 -0.62713528 1.0587801 4290164867
-0.040910829 -0.62710834 1.0587178 4290164872
-0.039277826 -0.62712276 1.0596845 4290296205
-0.037641283 -0.62709594 1.0596224 4290493331
-0.036004733 -0.627069 1.0595602 4290493851
-0.034360845 -0.62700069 1.0584691 4290427803
-0.032723341 -0.62697375 1.0584068 4290296473
-0.031085845 -0.62694687 1.0583446 4290296472
-0.029448342 -0.62691993 1.0582825 4290362010
-0.027799692 -0.62685144 1.057191 4290427544
-0.02616125 -0.6268245 1.0571288 4290362007
-0.0245228 -0.62679756 1.0570666 4290230672
-0.02288435 -0.62677068 1.0570043 4290230410
-0.021245908 -0.62674373 1.0569421 4290296711
-0.019607458 -0.62671679 1.0568799 4290230916
-0.017969009 -0.62668985 1.0568175 4290033536
-0.016330559 -0.62666297 1.0567553 4289967742
-0.014673356 -0.62659436 1.0556638 4289902205
-0.013033953 -0.62656736 1.0556016 4289901950
-0.01141521 -0.62658215 1.0565686 4289967742
-0.0097767673 -0.6265552 1.0565064 4290033535
-0.0081383176 -0.62652826 1.0564442 4289967742
-0.0064763613 -0.6264596 1.0553524 4289836158
-0.0047880597 -0.62634909 1.0532308 4289836157
-0.0031213574 -0.62628043 1.0521387 4290033788
-0.001347322 -0.62604451 1.0469278 4289967994
0.00038160011 -0.6258921 1.043776 4289902456
0.0021162294 -0.62573957 1.0406238 4290099832
-0.068903282 -0.62861836 1.0459569 4283915579
-0.06723012 -0.62867177 1.0479512 4285626193
-0.065550052 -0.6287654 1.0509744 4286415450
-0.063856184 -0.62893963 1.0560549 4287139425
-0.062207039 -0.62895298 1.0570214 4288323180
-0.06056764 -0.62892604 1.056959 4289376118
-0.058921333 -0.62893939 1.0579253 4289902453
-0.057282887 -0.62891245 1.0578631 4290034290
-0.055644438 -0.62888551 1.0578009 4290231666
-0.054005992 -0.62885857 1.0577385 4290166128
-0.052367549 -0.62883162 1.0576763 4290231921
-0.0507291 -0.62880468 1.0576141 4290363252
-0.049090642 -0.62877774 1.0575519 4290494840
-0.0474522 -0.6287508 1.0574896 4290494843
-0.04581375 -0.62872392 1.0574274 4290363006
-0.044175301 -0.62869698 1.0573652 4290296961
