# .PCD v0.7 - Point Cloud Data file format
VERSION 0.7
FIELDS x y z rgba
SIZE 4 4 4 4
TYPE F F F U
COUNT 1 1 1 1
WIDTH 1045
HEIGHT 1
VIEWPOINT 0 0 0 1 0 0 0
POINTS 1045
DATA ascii
0.068184778 -0.57790464 0.9379878 4279047172
0.070004359 -0.57781053 0.93689644 4279112965
0.071697369 -0.57784688 0.93785429 4279112965
0.073453665 -0.57781804 0.93778765 4279112966
0.075143799 -0.57785439 0.93874562 4279178759
0.076832071 -0.57789087 0.93970382 4279441675
0.078586444 -0.57786202 0.93963718 4279836433
0.080340847 -0.57783318 0.93957043 4279112710
0.08209525 -0.57780433 0.93950379 4278981125
0.083849624 -0.57777548 0.93943715 4281678638
0.085604027 -0.57774663 0.93937051 4289047454
0.08735843 -0.57771778 0.93930387 4291350211
0.089112833 -0.57768893 0.93923724 4290494903
0.091166005 -0.57739842 0.93507028 4290626235
0.093075484 -0.57723868 0.93295336 4290560442
0.09506537 -0.57701331 0.929811 4289573805
-0.45648274 -0.58201748 0.85723507 4282600757
-0.45400494 -0.58216655 0.86020839 4282469171
-0.45194983 -0.582196 0.86115277 4282534964
-0.44989666 -0.58222556 0.86209726 4282732600
-0.44722554 -0.58243477 0.86608577 4282798393
-0.44517902 -0.58246446 0.8670305 4282667064
-0.44170138 -0.58291364 0.8750782 4282667064
-0.43966529 -0.58294344 0.87602341 4282601271
-0.43742836 -0.58303326 0.87798333 4282469685
-0.43438771 -0.58336294 0.88400269 4282338099
-0.43216211 -0.58345294 0.8859632 4282272562
-0.43014026 -0.58348298 0.88690889 4282075694
-0.42752329 -0.58369315 0.89089942 4281680935
-0.42550811 -0.58372325 0.89184523 4281352226
-0.42349488 -0.58375341 0.89279127 4281286687
-0.42148352 -0.58378375 0.89373744 4281352735
-0.41966924 -0.58375388 0.89366853 4282537522
-0.41785499 -0.58372402 0.89359963 4284117323
-0.41623402 -0.58363402 0.89251554 4283854919
-0.41441879 -0.58360422 0.89244652 4282539315
-0.41279492 -0.58351421 0.89136231 4281751080
-0.41155019 -0.58330393 0.88824773 4282147377
-0.40973118 -0.58327401 0.88817859 4283003967
-0.40847775 -0.5830636 0.88506353 4283399751
-0.40703115 -0.58291316 0.88296342 4283466570
-0.40520737 -0.58288324 0.88289416 4283466569
-0.40375498 -0.5827328 0.88079405 4283203653
-0.40211406 -0.58264256 0.87970936 4282874432
-0.40028742 -0.58261251 0.87963986 4282742846
-0.39882651 -0.58246189 0.8775394 4282742846
-0.39699796 -0.58243179 0.87747002 4282545724
-0.39535043 -0.58234155 0.87638497 4282479931
-0.39406094 -0.58213043 0.87326849 4282414394
-0.39240766 -0.58203995 0.87218308 4282348601
-0.39093059 -0.58188909 0.87008214 4282283063
-0.38944969 -0.58173823 0.86798084 4282414392
-0.3877888 -0.58164763 0.8668952 4282545978
-0.38612601 -0.58155704 0.86580968 4282611771
-0.38296813 -0.58131522 0.86262226 4282743100
-0.38129869 -0.5812245 0.86153638 4282545722
-0.37962738 -0.58113378 0.86045039 4282282551
-0.37829512 -0.58092201 0.85733235 4282216502
-0.37644851 -0.58089161 0.85726213 4282216758
-0.37460193 -0.58086127 0.85719204 4282150965
0.0051927306 -0.58012354 0.93172073 4280560410
0.0068984665 -0.58022213 0.9337008 4280363292
0.0085703693 -0.58038449 0.93670475 4280363042
0.010205571 -0.58061075 0.94073248 4280494127
0.011960912 -0.5805819 0.94066584 4280690999
0.013716254 -0.58055305 0.9405992 4280624956
0.015437763 -0.58058798 0.94155633 4280888128
0.017157387 -0.58062303 0.94251359 4281085762
0.018910822 -0.58059418 0.94244695 4280428083
0.020700943 -0.5805015 0.94135642 4280428331
0.022455346 -0.58047265 0.94128978 4284639333
0.024248321 -0.58037984 0.94019914 4290692543
0.025964122 -0.58041501 0.94115651 4291087299
0.027718525 -0.58038616 0.94108987 4290363831
0.029472928 -0.58035731 0.94102311 4290363574
0.031227317 -0.58032846 0.94095647 4290429624
0.032981705 -0.58029962 0.94088984 4290232244
0.034736093 -0.58027077 0.9408232 4290560439
0.036490496 -0.58024192 0.94075656 4290823866
0.038244899 -0.58021307 0.94068992 4290692279
0.039999288 -0.58018422 0.94062328 4290231727
0.041753676 -0.58015537 0.94055665 4289771177
0.043508064 -0.58012652 0.94049001 4289639590
0.045212489 -0.58016181 0.94144785 4289179295
0.046965938 -0.58013302 0.94138122 4288258192
0.048719373 -0.58010423 0.94131458 4287731847
0.050367121 -0.58020365 0.94329691 4287534468
0.052118663 -0.58017492 0.94323039 4287205502
0.05387022 -0.58014607 0.94316387 4286613365
0.055621747 -0.58011729 0.94309735 4286152814
0.057373289 -0.5800885 0.94303071 4285297505
0.059124846 -0.58005971 0.9429642 4284310610
0.060934927 -0.57996666 0.94187284 4283586888
0.062687442 -0.57993782 0.94180632 4283192131
0.064439923 -0.57990897 0.9417398 4282797373
0.066315204 -0.57975161 0.93962359 4281942064
0.068069607 -0.57972276 0.93955696 4281349927
0.06988728 -0.57962966 0.93846536 4281086755
0.071642622 -0.57960075 0.93839872 4280823583
0.073397964 -0.5795719 0.93833196 4280494618
0.07508719 -0.57960743 0.9392904 4280165654
0.076841578 -0.57957858 0.93922377 4279968019
0.078595951 -0.57954979 0.93915713 4279704847
0.080281362 -0.57958531 0.94011569 4278981125
0.082034811 -0.57955652 0.94004905 4278981126
0.083788261 -0.57952774 0.93998241 4282007604
0.08554171 -0.57949889 0.93991578 4289179041
0.087367937 -0.57940555 0.93882394 4291152833
0.08912234 -0.5793767 0.93875718 4290429110
0.091175511 -0.57908976 0.93458927 4290560699
0.093085021 -0.57893187 0.93247175 4290626492
0.09499833 -0.57877386 0.93035412 4289442476
-0.5281893 -0.58366579 0.83797562 4281941033
-0.45378548 -0.5840019 0.86071789 4282995515
-0.45173135 -0.58403051 0.86166263 4283061308
-0.44967911 -0.58405912 0.86260748 4283061822
-0.44700897 -0.5842647 0.86659694 4282996029
-0.44475767 -0.58435249 0.86855686 4282996029
-0.44128206 -0.58479428 0.87660682 4282930236
-0.43904412 -0.5848822 0.87856722 4282601271
-0.43680999 -0.58497024 0.88052797 4281877548
-0.43377224 -0.58529454 0.886549 4281153825
-0.43175045 -0.58532369 0.88749492 4280890909
-0.42953056 -0.58541197 0.88945603 4280825627
-0.42691648 -0.5856185 0.89344788 4280957468
-0.4251022 -0.58558869 0.89337897 4281286688
-0.42309085 -0.5856179 0.89432514 4281484065
-0.42088521 -0.58570641 0.89628685 4281484321
-0.419269 -0.58561754 0.89520276 4282603314
-0.41726238 -0.58564687 0.89614916 4284183115
-0.41583756 -0.58549869 0.89404953 4283788869
-0.41421661 -0.58540976 0.89296544 4282276399
-0.41259375 -0.58532059 0.89188099 4281488164
-0.41115937 -0.5851723 0.889781 4282016048
-0.40953177 -0.58508325 0.88869643 4282807358
-0.40827936 -0.58487546 0.88558054 4283137606
-0.40664604 -0.58478624 0.88449585 4283138375
-0.40501082 -0.58469701 0.88341093 4283007302
-0.40355939 -0.58454835 0.88131034 4282744386
-0.40191939 -0.58445907 0.88022518 4282546751
-0.40009376 -0.58442903 0.88015592 4282480700
-0.39863375 -0.58428037 0.87805486 4282546236
-0.39698803 -0.58419085 0.8769697 4282480699
-0.39515954 -0.5841608 0.8769002 4282349369
-0.39387098 -0.58395255 0.87378311 4282283577
-0.3923977 -0.58380353 0.87168157 4282283322
-0.39074254 -0.58371401 0.87059593 4282217785
-0.38943973 -0.58350545 0.86747825 4282217783
-0.38777882 -0.58341581 0.86639237 4282414906
-0.38611603 -0.5833261 0.86530662 4282612285
-0.38295814 -0.58308709 0.86211824 4282612028
-0.38128871 -0.5829972 0.86103213 4282414649
-0.37961736 -0.58290744 0.85994601 4282217271
-0.37811464 -0.58275795 0.8578434 4282151478
-0.3764385 -0.58266807 0.85675693 4282085685
-0.37459192 -0.58263767 0.85668683 4282019892
-0.0035638101 -0.57691252 0.84872878 4281480993
0.00026460364 -0.58102834 0.91710711 4280757783
0.0019106306 -0.58131319 0.92215836 4280757783
0.0035743453 -0.58153534 0.9261862 4280691993
0.0051741563 -0.58188325 0.93226182 4280560409
0.0068789385 -0.58197999 0.93424261 4280429083
0.0085498504 -0.58213961 0.93724728 4280428835
0.010215092 -0.58229935 0.9402523 4280559663
0.011970434 -0.5822705 0.94018555 4280625208
0.013692882 -0.5823046 0.94114292 4280625211
0.015413459 -0.58233869 0.94210041 4280757055
0.017166894 -0.58230984 0.94203377 4281019968
0.018884581 -0.58234394 0.94299114 4281019964
0.020673778 -0.58225214 0.94190061 4280757297
0.022427212 -0.58222336 0.94183397 4285165678
0.024219241 -0.58213151 0.94074309 4291087299
0.025934111 -0.58216572 0.94170082 4291416263
0.027687546 -0.58213687 0.94163418 4290560956
0.02939954 -0.58217108 0.94259167 4290363577
0.031152036 -0.58214229 0.94252515 4290692541
0.032904532 -0.5821135 0.94245863 4290758335
0.034657028 -0.58208466 0.94239199 4291284166
0.036409508 -0.58205587 0.94232547 4291481544
0.038115818 -0.58209026 0.94328344 4291481543
0.03986736 -0.58206141 0.94321692 4291481797
0.041618902 -0.58203268 0.9431504 4291416003
0.043370444 -0.58200383 0.94308376 4291481796
0.045121986 -0.58197504 0.94301724 4291152829
0.046822589 -0.58200943 0.94397545 4291087035
0.048573192 -0.58198071 0.94390893 4290889912
0.050270934 -0.58201516 0.94486725 4291153083
0.052020568 -0.58198637 0.94480073 4291218876
0.053770203 -0.58195758 0.94473433 4291153083
0.05546416 -0.58199209 0.94569266 4291021496
0.057212856 -0.58196336 0.94562626 4290626738
0.058961537 -0.58193457 0.94555974 4289968808
0.060768772 -0.58184254 0.94446838 4289442464
0.062518418 -0.58181381 0.94440198 4288916122
0.064268053 -0.58178502 0.94433546 4288652950
0.066140503 -0.58162951 0.9422189 4287929227
0.06789203 -0.58160073 0.94215226 4287534469
0.069706902 -0.58150852 0.94106054 4286942331
0.071459398 -0.58147967 0.94099402 4286284401
0.073277101 -0.5813874 0.93990231 4285429093
0.07503055 -0.58135861 0.93983579 4284639577
0.076784 -0.58132976 0.93976915 4283784013
0.078537419 -0.58130097 0.93970251 4283060290
0.080290869 -0.58127213 0.93963587 4282139189
0.082044318 -0.58124328 0.93956923 4281744430
0.083797768 -0.58121449 0.93950272 4284244566
0.085551217 -0.58118564 0.93943608 4289310627
0.087304637 -0.58115685 0.93936944 4290626490
0.089058086 -0.581128 0.9393028 4290363318
0.091110334 -0.58084476 0.93513381 4290495163
0.093094572 -0.58062506 0.93199027 4290560957
0.095007882 -0.58046889 0.92987204 4289244842
-0.52842379 -0.58540666 0.83645058 4281809445
-0.52606612 -0.58549082 0.83840704 4281283103
-0.46179774 -0.58572495 0.8574487 4282863675
-0.45994925 -0.58569455 0.85737848 4282863674
-0.45746675 -0.58583808 0.86035311 4282995260
-0.45541069 -0.58586574 0.86129797 4283258688
-0.45293766 -0.58600944 0.86427307 4283456580
-0.45067886 -0.58609521 0.86623335 4283390530
-0.44738606 -0.5864712 0.8732692 4283061822
-0.44513956 -0.58655727 0.87523007 4282864443
-0.4428969 -0.58664334 0.87719071 4282864444
-0.43983921 -0.58696175 0.88321245 4282798908
-0.43760797 -0.58704805 0.88517392 4282206516
-0.43538055 -0.58713436 0.88713527 4281285670
-0.43255129 -0.58739507 0.89214277 4280627738
-0.4303343 -0.5874815 0.89410448 4280233236
-0.42832097 -0.58750999 0.89505112 4280299028
-0.4257127 -0.58771288 0.89904404 4280957468
-0.42370602 -0.58774137 0.8999908 4281878311
-0.42170134 -0.58776987 0.90093768 4281944359
-0.41969851 -0.58779836 0.90188456 4281812772
-0.41789278 -0.58776867 0.90181589 4282668336
-0.41628131 -0.58768076 0.9007318 4284182087
-0.41486126 -0.58753443 0.89863181 4284182599
-0.41324502 -0.58744651 0.89754736 4282802227
-0.4118183 -0.58730006 0.89544713 4281816614
-0.41057822 -0.58709538 0.89233112 4282081326
-0.40895346 -0.58700716 0.89124632 4282741052
-0.40751529 -0.58686066 0.88914585 4283137606
-0.40644857 -0.58659726 0.88501322 4283073097
-0.4048143 -0.58650893 0.88392818 4282810951
-0.40336379 -0.58636212 0.88182688 4282416962
-0.40154001 -0.5863322 0.88175762 4282350655
-0.39990005 -0.58624375 0.88067245 4282284605
-0.39844099 -0.58609688 0.87857103 4282284093
-0.39679626 -0.58600843 0.87748539 4282284093
-0.39496869 -0.58597833 0.87741601 4282284093
-0.39386106 -0.58571434 0.87328207 4282218300
-0.39220876 -0.58562565 0.8721962 4282152763
-0.39055452 -0.58553696 0.87111032 4282021176
-0.38942978 -0.58527273 0.86697567 4281955382
-0.3875927 -0.58524251 0.86690581 4282218554
-0.38593084 -0.58515376 0.86581957 4282613056
-0.38478997 -0.58488917 0.86168432 4282678849
-0.38127869 -0.58476996 0.86052799 4282152248
-0.37960735 -0.58468103 0.85944152 4282020662
-0.37810463 -0.58453339 0.85733843 4282020405
-0.37642851 -0.5844444 0.85625172 4282085941
-0.37458193 -0.58441406 0.85618162 4282020149
-0.0035538338 -0.57868344 0.84822512 4281349151
0.00032484159 -0.5826143 0.91457307 4280757270
0.0019727238 -0.58289456 0.91962552 4280757270
0.003638301 -0.58311301 0.9236542 4280626456
0.0051555671 -0.58364117 0.93280363 4280494617
0.0068593808 -0.58373606 0.93478489 4280363292
0.0085593723 -0.58383095 0.93676627 4280494627
0.010224614 -0.58398801 0.93977201 4280559918
0.011979956 -0.58395916 0.93970525 4280625460
0.013735298 -0.58393031 0.93963861 4280691513
0.015422966 -0.5840255 0.94162071 4280757308
0.017176401 -0.58399665 0.94155407 4280954428
0.018929835 -0.5839678 0.94148743 4280954425
0.020683285 -0.58393902 0.94142079 4281086262
0.022436719 -0.58391023 0.94135427 4285231216
0.024190184 -0.58388138 0.94128764 4291350474
0.025943618 -0.58385253 0.941221 4291548107
0.027697053 -0.58382368 0.94115436 4291152840
0.029409047 -0.58385694 0.94211221 4290560703
0.031161543 -0.58382815 0.94204569 4291087046
0.032914039 -0.58379936 0.94197905 4291284424
0.034666535 -0.58377051 0.94191253 4291284422
0.036419015 -0.58374172 0.94184589 4291481800
0.038171526 -0.58371294 0.94177938 4291218373
0.039876852 -0.58374643 0.9427377 4291284420
0.041628394 -0.58371764 0.94267118 4291218626
0.043379936 -0.58368886 0.94260454 4291021503
0.045131478 -0.58366001 0.94253802 4290626487
0.046832081 -0.5836935 0.94349647 4290824122
0.048582684 -0.58366477 0.94342995 4290758328
0.050280426 -0.58369827 0.94438851 4290824377
0.05203006 -0.58366954 0.94432199 4291021755
0.053779695 -0.58364075 0.94425559 4291153341
0.055529345 -0.58361197 0.94418907 4291153340
0.05727898 -0.58358324 0.94412267 4291087291
0.059028629 -0.58355445 0.94405615 4291087290
0.060778264 -0.58352566 0.94398975 4290889912
0.06252791 -0.58349693 0.94392323 4290889913
0.064277545 -0.5834682 0.94385684 4291087548
0.066088617 -0.583377 0.94276488 4291021755
0.067901522 -0.58328569 0.94167304 4291219134
0.069716409 -0.58319438 0.94058108 4291152828
0.071468905 -0.58316553 0.94051445 4290692533
0.073221385 -0.58313674 0.94044793 4290363312
0.075040057 -0.58304548 0.93935597 4289771175
0.076793507 -0.58301663 0.93928933 4289244832
0.078546926 -0.58298779 0.93922281 4288586902
0.080300376 -0.58295894 0.93915617 4287928974
0.082053825 -0.58293015 0.93908954 4287205251
0.083807275 -0.58290136 0.9390229 4288060561
0.085560724 -0.58287251 0.93895626 4289836972
0.087314144 -0.58284366 0.93888974 4290231734
0.089067593 -0.58281481 0.9388231 4290363321
0.091194585 -0.58247256 0.93362713 4290495165
0.093104109 -0.58231831 0.93150866 4290626495
0.09509404 -0.58210117 0.92836392 4288257948
-0.52816904 -0.58726251 0.83695269 4281809447
-0.52605599 -0.58728826 0.83789575 4281546277
-0.46342203 -0.58759058 0.85802817 4282534710
-0.46157447 -0.58756018 0.85795808 4282863675
-0.45951468 -0.58758688 0.85890317 4283061054
-0.45703402 -0.58772773 0.86187863 4282929724
-0.4549799 -0.58775449 0.86282384 4283061566
-0.45229933 -0.58795261 0.86681521 4283324993
-0.45004335 -0.58803654 0.86877596 4282996285
-0.44675347 -0.58840626 0.87581372 4282601271
-0.44450983 -0.58849049 0.87777507 4282535478
-0.44227007 -0.58857477 0.87973654 4282864445
-0.43921527 -0.58888781 0.88576007 4283062081
-0.43719062 -0.58891505 0.88670635 4282864959
-0.43516785 -0.58894241 0.88765287 4282601786
-0.43213776 -0.58925575 0.89367723 4282470198
-0.43012354 -0.58928323 0.89462411 4282207025
-0.42811126 -0.58931065 0.89557087 4281943852
-0.42550385 -0.58950996 0.89956498 4282009899
-0.42349818 -0.58953756 0.90051198 4282338862
-0.42149445 -0.58956516 0.9014591 4282009895
-0.41949257 -0.58959275 0.90240633 4281351964
-0.41768783 -0.58956313 0.90233779 4281615392
-0.41588306 -0.58953345 0.90226924 4283128886
-0.41465816 -0.58933175 0.89915299 4283853121
-0.4130429 -0.5892446 0.89806819 4282867250
-0.41142568 -0.58915746 0.89698362 4281618721
-0.41037795 -0.58889806 0.89285064 4281686053
-0.40856463 -0.58886826 0.89278173 4282609208
-0.40693986 -0.58878106 0.89169693 4283203399
-0.40587592 -0.58852136 0.88756335 4283073610
-0.40405783 -0.58849144 0.88749433 4282746184
-0.40261117 -0.5883466 0.88539279 4282351939
-0.40097594 -0.58825916 0.8843075 4282154559
-0.39915502 -0.58822924 0.88423824 4282154046
-0.39788261 -0.58802664 0.88112009 4282219070
-0.39624071 -0.58793914 0.88003457 4282218815
-0.39459693 -0.58785164 0.87894881 4282218560
-0.39331117 -0.58764881 0.87583017 4282218815
-0.39184073 -0.58750355 0.8737278 4282153277
-0.39001033 -0.58747345 0.87365818 4281890360
-0.38888842 -0.58721292 0.86952257 4281758773
-0.3872304 -0.58712506 0.86843634 4282021945
-0.38557044 -0.58703721 0.8673501 4282416447
-0.38425714 -0.58683407 0.86423039 4282482240
-0.38259152 -0.5867461 0.8631438 4282218811
-0.38109633 -0.58660042 0.86104047 4281955382
-0.37775365 -0.58642447 0.85886705 4281889076
-0.37607947 -0.58633626 0.8577801 4281954612
-0.37440333 -0.58624816 0.85669315 4281954612
-0.0035663135 -0.58051527 0.84874558 4281348894
0.0004103668 -0.58414298 0.9110136 4280823063
0.0020348318 -0.58447957 0.91709149 4280757270
0.0037023015 -0.58469427 0.92112112 4280626457
0.0051651187 -0.58533621 0.93232143 4280560410
0.0068689175 -0.58542931 0.93430328 4280428830
0.008568909 -0.58552241 0.93628526 4280560163
0.010234121 -0.58567667 0.93929172 4280494377
0.011989463 -0.58564782 0.93922508 4280559917
0.013744805 -0.58561897 0.93915832 4280757299
0.015466299 -0.58565116 0.94011629 4280954422
0.017185908 -0.58568347 0.94107437 4281086264
0.018939342 -0.58565462 0.94100773 4281086263
0.020692792 -0.58562577 0.9409411 4281217847
0.022446226 -0.58559698 0.94087446 4283981152
0.02423827 -0.58550692 0.9397831 4288915882
0.025953125 -0.58553934 0.9407413 4289573810
0.02770656 -0.58551049 0.94067466 4289639605
0.029418539 -0.58554292 0.94163275 4289508019
0.031171035 -0.58551407 0.94156623 4289771192
0.032923531 -0.58548528 0.94149959 4290165946
0.034676027 -0.58545649 0.94143307 4290429113
0.036428507 -0.58542764 0.94136643 4290560698
0.038181018 -0.58539879 0.94129992 4290626236
0.039886359 -0.5854314 0.94225848 4290757821
0.041637901 -0.58540261 0.94219196 4290758334
0.043389443 -0.58537376 0.94212532 4290692541
0.045140985 -0.58534503 0.9420588 4290429624
0.046892527 -0.58531618 0.94199228 4290232244
0.048592176 -0.58534884 0.94295096 4290298035
0.05034275 -0.58532006 0.94288445 4290495414
0.052039538 -0.58535266 0.94384336 4290561205
0.053789172 -0.58532393 0.94377685 4290626998
0.055538822 -0.58529514 0.94371045 4290561205
0.057288457 -0.58526635 0.94364393 4290495412
0.059038106 -0.58523762 0.94357753 4290561205
0.060787741 -0.58520883 0.94351101 4290495412
0.062537387 -0.58518004 0.94344449 4290626998
0.064347506 -0.5850898 0.94235241 4290824377
0.066098109 -0.58506107 0.9422859 4290890170
0.067911029 -0.58497071 0.94119382 4291021500
0.069725901 -0.58488023 0.94010162 4291284416
0.071478397 -0.58485144 0.94003499 4291416002
0.073230878 -0.58482265 0.93996847 4291218622
0.075049564 -0.58473223 0.93887627 4291021243
0.076803014 -0.58470339 0.93880963 4290955450
0.078556433 -0.5846746 0.938743 4290758071
0.080309883 -0.58464575 0.93867636 4290429108
0.082063332 -0.5846169 0.93860984 4289968557
0.083816782 -0.58458811 0.9385432 4289837230
0.085570231 -0.58455926 0.93847656 4290166195
0.087323651 -0.58453047 0.93840992 4290363577
0.0890771 -0.58450162 0.93834341 4290429371
0.091204122 -0.5841639 0.93314612 4290560704
0.093189314 -0.58394969 0.93000102 4290626497
0.095103577 -0.5837971 0.9278816 4286876298
-0.5281589 -0.58906084 0.83644128 4281743654
-0.52604586 -0.5890857 0.83738458 4281546277
-0.46298364 -0.58948004 0.85955358 4281810987
-0.46113801 -0.58944976 0.85948348 4282468917
-0.45908007 -0.58947551 0.86042869 4283192640
-0.45660138 -0.58961368 0.86340511 4283192896
-0.4545491 -0.58963954 0.8643508 4283061310
-0.45145163 -0.58994639 0.8703742 4283061823
-0.44919947 -0.59002864 0.87233567 4283061823
-0.44632846 -0.59027958 0.87734425 4283061824
-0.44408676 -0.59036195 0.8793062 4283456582
-0.44184887 -0.59044445 0.88126826 4284048721
-0.43879604 -0.59075201 0.88729346 4284706650
-0.43677327 -0.59077847 0.8882401 4284904029
-0.43475237 -0.59080482 0.88918686 4284838749
-0.4319261 -0.59105653 0.89419711 4284904540
-0.42991284 -0.59108305 0.8951441 4284904540
-0.42770153 -0.59116602 0.89710712 4284641367
-0.42529508 -0.59130526 0.90008628 4284049485
-0.42329034 -0.59133196 0.90103364 4282864953
-0.4212876 -0.5913586 0.90198112 4281351713
-0.41928667 -0.59138536 0.90292859 4280233487
-0.41748285 -0.59135568 0.90286005 4280233742
-0.41567907 -0.591326 0.90279162 4281352478
-0.41426179 -0.59118348 0.90069067 4282405420
-0.41284075 -0.59104091 0.89858973 4282077224
-0.41122454 -0.59095466 0.89750469 4281157660
-0.40998724 -0.59075546 0.89438713 4281093406
-0.40836534 -0.59066916 0.89330208 4282279733
-0.40674147 -0.59058285 0.8922168 4283202888
-0.40549091 -0.59038341 0.88909864 4283139147
-0.40386134 -0.59029698 0.88801336 4282811464
-0.40241563 -0.59015399 0.88591146 4282417732
-0.40078136 -0.59006751 0.88482571 4282154560
-0.39896134 -0.59003758 0.88475657 4282088254
-0.39768985 -0.58983779 0.88163769 4282153278
-0.39604899 -0.58975112 0.88055182 4282219072
-0.39440608 -0.58966452 0.87946606 4282218816
-0.39330125 -0.5894078 0.87532985 4282219071
-0.39165181 -0.58932114 0.87424374 4282087998
-0.38982233 -0.5892911 0.87417424 4281890618
-0.38887846 -0.58897746 0.8690207 4281759031
-0.38704425 -0.5889473 0.86895108 4281890361
-0.38538527 -0.58886033 0.86786461 4282153276
-0.3840729 -0.58865988 0.86474395 4282219068
-0.3824082 -0.58857292 0.86365736 4282087225
-0.38074163 -0.58848584 0.86257052 4281889590
-0.37941593 -0.58828521 0.85944963 4281889333
-0.37589991 -0.58816779 0.85829258 4282020405
-0.37405619 -0.58813751 0.85822248 4281954612
-0.0053747483 -0.58225548 0.84728777 4281677860
-0.003601227 -0.58240527 0.85029078 4281414688
0.00049592927 -0.58567709 0.90745246 4280823063
0.0021232255 -0.58600807 0.9135319 4280757271
0.0037390999 -0.58633924 0.91961169 4280625946
0.0051746704 -0.58703125 0.93183935 4280560155
0.0068784691 -0.58712244 0.9338218 4280428573
0.0085784458 -0.58721375 0.93580413 4280494113
0.010243643 -0.58736527 0.93881142 4280428327
0.011998985 -0.58733642 0.93874478 4280625453
0.013754327 -0.58730757 0.93867815 4280822837
0.015475806 -0.58733892 0.93963635 4281151802
0.017195415 -0.58737028 0.94059455 4281283388
0.018913087 -0.58740163 0.94155264 4281217849
0.020665582 -0.58737278 0.94148612 4281217848
0.022455733 -0.58728379 0.94039476 4281809984
0.024209198 -0.587255 0.94032812 4283389016
0.025962632 -0.58722615 0.94026148 4283981152
0.027716067 -0.5871973 0.94019496 4284047200
0.029428046 -0.58722878 0.94115329 4284178786
0.031180542 -0.58719993 0.94108665 4284836716
0.032976415 -0.58711088 0.93999505 4285297266
0.034685533 -0.58714235 0.94095349 4286020729
0.036438014 -0.5871135 0.94088697 4286481535
0.038144309 -0.58714521 0.94184577 4287205001
0.039895851 -0.58711636 0.94177926 4288586653
0.041647393 -0.58708763 0.94171262 4289508011
0.043398935 -0.58705878 0.9416461 4289903025
0.045150477 -0.58702999 0.94157958 4289771438
0.04690202 -0.5870012 0.94151306 4289639851
0.048601668 -0.58703291 0.94247198 4289837228
0.050352242 -0.58700407 0.94240546 4290297779
0.052102845 -0.58697534 0.94233894 4290297778
0.053853434 -0.58694655 0.94227242 4290363571
0.055548314 -0.58697832 0.9432317 4290297778
0.057297949 -0.58694953 0.94316518 4290231985
0.059047598 -0.58692074 0.94309878 4290232241
0.060738679 -0.58695257 0.94405806 4290363827
0.062487375 -0.58692384 0.94399154 4290429363
0.064296514 -0.58683443 0.94289935 4290363827
0.066046163 -0.5868057 0.94283295 4290363571
0.067858174 -0.58671629 0.94174051 4290429363
0.069672078 -0.58662689 0.94064808 4290560693
0.07142362 -0.5865981 0.94058156 4290955451
0.073240384 -0.58650851 0.93948889 4290626486
0.074992895 -0.58647972 0.93942237 4290560693
0.076812521 -0.5863902 0.93832994 4290560693
0.07856594 -0.58636141 0.9382633 4290429107
0.08031939 -0.58633256 0.93819666 4290363060
0.082072839 -0.58630371 0.93813002 4290100145
0.083826289 -0.58627492 0.93806338 4290034867
0.085579738 -0.58624607 0.93799686 4290297783
0.087333158 -0.58621728 0.93793023 4290494908
0.089086607 -0.58618844 0.93786359 4290560703
0.091213658 -0.58585531 0.93266499 4291021258
0.093198881 -0.58564383 0.92951918 4290758086
0.095189795 -0.58543217 0.926373 4286481286
0.10905446 -0.58150738 0.86238778 4280822585
0.11145358 -0.58105052 0.85513198 4280888374
-0.52814877 -0.59085917 0.83592975 4281677863
-0.52579212 -0.59093785 0.83788788 4281283105
-0.46872756 -0.59129143 0.85824335 4282205745
-0.46666488 -0.59131622 0.8591888 4281482022
-0.46460411 -0.59134102 0.86013424 4280955678
-0.46190265 -0.59153152 0.8641268 4281284899
-0.46006182 -0.59150124 0.86405694 4282535480
-0.45800865 -0.59152621 0.86500263 4283982670
-0.45490068 -0.59182751 0.87102723 4284443221
-0.45222488 -0.59201825 0.87502074 4284377427
-0.44997561 -0.59209871 0.87698293 4284377683
-0.44793856 -0.59212399 0.87792921 4284575061
-0.44507337 -0.59237045 0.88293934 4284706648
-0.44283736 -0.5924511 0.884902 4284969820
-0.44060516 -0.59253186 0.88686478 4285298787
-0.43796745 -0.59272337 0.89085972 4285759337
-0.43594849 -0.59274888 0.89180684 4285693545
-0.43393141 -0.59277433 0.89275384 4285496165
-0.43151256 -0.59291077 0.89573348 4285496420
-0.42950124 -0.59293646 0.89668083 4285693799
-0.42729184 -0.59301752 0.89864445 4285759848
-0.42488733 -0.59315413 0.90162444 4285365090
-0.42288452 -0.59317994 0.90257215 4283917643
-0.42088366 -0.59320581 0.90351999 4281549351
-0.41888463 -0.59323162 0.9044677 4279904523
-0.41688752 -0.59325749 0.90541565 4279970314
-0.41508657 -0.59322786 0.90534723 4280694036
-0.41367218 -0.5930872 0.90324605 4281352477
-0.41206163 -0.59300196 0.902161 4281418783
-0.41064057 -0.59286124 0.90005946 4280828184
-0.40940616 -0.59266484 0.89694118 4280763673
-0.40797654 -0.59252381 0.89483941 4282081584
-0.40635461 -0.59243852 0.89375389 4283268168
-0.40510595 -0.59224188 0.89063525 4283204682
-0.40366486 -0.59210068 0.88853276 4282745414
-0.40222007 -0.59195954 0.88643038 4282351683
-0.40058672 -0.591874 0.88534462 4282088768
-0.3989515 -0.59178835 0.88425863 4281956925
-0.39749715 -0.59164703 0.8821559 4282022205
-0.39585719 -0.59156138 0.88106978 4282087998
-0.39421532 -0.59147561 0.87998354 4282153791
-0.39311135 -0.59122264 0.87584651 4282088254
-0.39164189 -0.59108114 0.87374318 4282022461
-0.38981241 -0.59105104 0.87367368 4281956668
-0.3886914 -0.59079766 0.86953592 4281825082
-0.38703433 -0.59071183 0.86844921 4281759033
-0.38520011 -0.59068167 0.86837947 4281824825
-0.38388869 -0.5904839 0.86525834 4281890360
-0.38222492 -0.59039783 0.86417127 4281890103
-0.38055924 -0.59031177 0.86308444 4281889846
-0.37923452 -0.59011382 0.85996258 4281955382
-0.37739271 -0.59008354 0.85989261 4282020919
-0.37572041 -0.58999729 0.85880542 4282020662
-0.3725377 -0.58976889 0.85561311 4282020405
-0.37069207 -0.58973849 0.85554302 4282283064
-0.0053862818 -0.58408546 0.8478086 4281677861
-0.0035912655 -0.58417344 0.84978795 4281414689
0.0004802905 -0.58745313 0.90798903 4280954395
0.0021328665 -0.58771956 0.91304517 4280822810
0.0037487261 -0.5880453 0.91912639 4280691225
0.0051560663 -0.58878541 0.93238223 4280559642
0.0068880059 -0.58881569 0.93334019 4280428318
0.0085879676 -0.5889051 0.93532312 4280493858
0.01025315 -0.58905387 0.93833113 4280493863
0.012008492 -0.58902502 0.93826449 4280690990
0.013763834 -0.58899617 0.93819785 4281020217
0.015451487 -0.58908594 0.94018149 4281414975
0.017204922 -0.58905709 0.94011486 4281349181
0.018922579 -0.58908749 0.94107318 4281283643
0.020675074 -0.5890587 0.94100666 4281217850
0.02242757 -0.58902991 0.94094002 4281020215
0.024218705 -0.58894181 0.93984842 4280691506
0.025972139 -0.58891296 0.93978179 4280099368
0.027685057 -0.58894348 0.94074035 4279770401
0.029437538 -0.58891463 0.94067371 4279507229
0.031190034 -0.58888584 0.94060719 4279770399
0.032985922 -0.58879769 0.93951535 4280231206
0.034695026 -0.58882821 0.94047403 4280494121
0.036447506 -0.58879942 0.94040751 4280823340
0.038153801 -0.58883011 0.94136655 4281875514
0.039905343 -0.58880138 0.94130003 4284836453
0.041656885 -0.58877254 0.9412334 4287599759
0.043408427 -0.58874375 0.94116688 4288455067
0.045159969 -0.58871496 0.94110036 4288389272
0.046860557 -0.58874571 0.94205952 4288389528
0.04861116 -0.58871698 0.941993 4288718491
0.050308872 -0.58874774 0.94295239 4289310628
0.052058507 -0.58871895 0.94288588 4289508007
0.053808141 -0.58869016 0.94281948 4289573800
0.055557791 -0.58866143 0.94275296 4289442213
0.057250779 -0.58869231 0.94371247 4289508006
0.05899946 -0.58866358 0.94364595 4289573799
0.060748156 -0.58863485 0.94357955 4289771178
0.062496852 -0.58860606 0.94351315 4289902763
0.064305991 -0.58851761 0.94242072 4289902763
0.066055641 -0.58848882 0.9423542 4289968556
0.067805275 -0.58846009 0.94228768 4289968556
0.06968157 -0.58831185 0.94016886 4290165935
0.071433112 -0.58828306 0.94010234 4290363314
0.073184654 -0.58825427 0.94003582 4290363314
0.075002387 -0.58816564 0.93894291 4290429107
0.076754868 -0.58813679 0.93887627 4290363315
0.078507349 -0.588108 0.93880975 4290363315
0.080328897 -0.58801937 0.93771696 4290363062
0.082082346 -0.58799052 0.93765032 4290165939
0.083835796 -0.58796173 0.93758368 4290100149
0.085589245 -0.58793288 0.93751705 4290494909
0.087342665 -0.5879041 0.93745041 4290692291
0.089096114 -0.58787525 0.93738389 4291021257
0.091223165 -0.58754671 0.93218398 4291678934
0.093208417 -0.58733797 0.92903733 4290889418
0.095199347 -0.58712906 0.92589033 4286283910
0.10914575 -0.58320081 0.86086202 4280822585
0.1114635 -0.58281052 0.85463142 4280822581
0.11387594 -0.58235979 0.84737337 4281151796
-0.52813864 -0.59265757 0.83541834 4281809449
-0.52602559 -0.59268057 0.83636212 4280953885
-0.52367181 -0.59275746 0.83832073 4280296212
-0.46850049 -0.59312207 0.85875392 4281679401
-0.4664388 -0.59314597 0.85969961 4280955678
-0.46437898 -0.59316993 0.86064553 4280692506
-0.46167853 -0.59335673 0.86463904 4281942829
-0.4598386 -0.59332645 0.86456919 4284114512
-0.45672494 -0.59362215 0.8705951 4285693544
-0.4546794 -0.59364617 0.87154138 4286154095
-0.45200461 -0.59383357 0.87553608 4285890923
-0.44975626 -0.59391212 0.87749863 4285627752
-0.4477202 -0.59393644 0.87844539 4285627752
-0.44485593 -0.59417832 0.88345683 4285496166
-0.4426209 -0.59425724 0.88541996 4285430373
-0.44059533 -0.59428179 0.88636708 4285693545
-0.4377529 -0.59452403 0.89137936 4285825132
-0.43593866 -0.59449422 0.89131045 4285693290
-0.43392161 -0.59451878 0.89225769 4285495911
-0.43150276 -0.59465241 0.89523816 4285496166
-0.42949143 -0.59467721 0.89618576 4285693801
-0.42748204 -0.59470195 0.89713335 4285825387
-0.42487755 -0.5948903 0.90113068 4285693800
-0.42287475 -0.59491515 0.90207863 4285035613
-0.42087388 -0.59494013 0.9030267 4283456837
-0.4186787 -0.59501958 0.90499139 4282338611
-0.41687775 -0.59499002 0.90492296 4282338610
-0.41507679 -0.59496045 0.90485454 4281878313
-0.4136624 -0.59482157 0.90275276 4281220638
-0.41205186 -0.59473723 0.90166748 4281024027
-0.41043943 -0.59465295 0.90058219 4280696088
-0.40939635 -0.59440464 0.89644635 4280697370
-0.40777725 -0.5943203 0.89536083 4281817645
-0.40615627 -0.59423578 0.89427531 4283004484
-0.40509611 -0.59398723 0.89013886 4283138122
-0.40346846 -0.59390259 0.88905287 4282679367
-0.40202451 -0.59376323 0.88695002 4282351172
-0.40039212 -0.59367859 0.8858639 4282088513
-0.39857408 -0.59364879 0.88579488 4281956927
-0.39730448 -0.59345448 0.88267446 4282022207
-0.39566544 -0.59336972 0.88158822 4282088256
-0.39420542 -0.59323007 0.87948453 4282154048
-0.39310145 -0.59298074 0.87534642 4282154048
-0.39127392 -0.5929507 0.87527704 4282088254
-0.38962439 -0.59286577 0.87419033 4281956668
-0.38850436 -0.5926162 0.87005174 4281825082
-0.38667205 -0.5925861 0.86998212 4281693496
-0.38501495 -0.59250098 0.86889505 4281627703
-0.38370445 -0.59230608 0.8657732 4281627446
-0.3818683 -0.59227592 0.86570346 4281692982
-0.38020459 -0.59219074 0.86461616 4281824310
-0.37888175 -0.5919956 0.86149383 4281955639
-0.37721226 -0.59191036 0.8604064 4282021175
-0.3753714 -0.59188008 0.86033642 4281955126
-0.37403619 -0.59168482 0.85721362 4281823283
-0.37219247 -0.59165454 0.85714352 4281888819
-0.37051544 -0.59156907 0.85605574 4282217271
-0.0053763129 -0.58585548 0.84730518 4281612068
-0.0036037602 -0.58599973 0.85030997 4281414689
0.00048996136 -0.58916926 0.90750086 4280954141
0.0021162443 -0.58948934 0.91358352 4280822555
0.0037583373 -0.5897513 0.91864121 4280625179
0.0051656179 -0.59047955 0.93190038 4280559387
0.0068975426 -0.59050894 0.93285859 4280493599
0.0085975043 -0.59059656 0.93484211 4280624933
0.010262672 -0.59074253 0.93785095 4280559401
0.012018014 -0.59071368 0.93778419 4280757039
0.013773356 -0.59068483 0.93771756 4281283388
0.015460994 -0.59077269 0.93970168 4281414974
0.017214429 -0.5907439 0.93963504 4281349437
0.018932085 -0.5907734 0.94059372 4281349436
0.020684581 -0.59074461 0.9405272 4281217594
0.022437077 -0.59071577 0.94046056 4280888629
0.024228211 -0.59062856 0.93936861 4280559665
0.025942069 -0.59065819 0.94032741 4280099368
0.027694564 -0.59062934 0.94026089 4280033574
0.029447045 -0.59060055 0.94019425 4279836193
0.031199541 -0.59057176 0.94012773 4279704606
0.032995429 -0.59048444 0.93903565 4279836448
0.034704532 -0.59051412 0.93999457 4279770398
0.036457013 -0.59048533 0.93992794 4279244052
0.038163293 -0.59051514 0.94088733 4279901981
0.039914835 -0.59048629 0.94082069 4282928457
0.041666377 -0.59045756 0.94075418 4286876036
0.043417919 -0.59042871 0.94068766 4287533965
0.045169462 -0.59039992 0.94062114 4287468427
0.046870049 -0.59042978 0.94158053 4287533963
0.048620652 -0.59040105 0.94151402 4287797134
0.050318364 -0.59043086 0.94247365 4288257941
0.052067999 -0.59040213 0.94240725 4288455064
0.053817634 -0.59037334 0.94234073 4288520856
0.05551156 -0.59040332 0.94330037 4288323734
0.057260256 -0.59037459 0.94323397 4288520857
0.059008937 -0.5903458 0.94316757 4288652442
0.060757633 -0.59031707 0.94310117 4288718235
0.062506333 -0.59028828 0.94303465 4288850075
0.064255029 -0.59025955 0.94296825 4288915868
0.066065133 -0.59017199 0.94187546 4288784283
0.067814767 -0.5901432 0.94180906 4288784283
0.069627762 -0.5900557 0.94071603 4289047455
0.071442604 -0.58996803 0.93962312 4289244834
0.073194146 -0.58993924 0.9395566 4289639592
0.075011894 -0.5898515 0.93846333 4289836971
0.076764375 -0.58982265 0.93839681 4289705387
0.078516856 -0.58979392 0.93833029 4289902510
0.080269381 -0.58976507 0.93826365 4289968305
0.082021847 -0.58973622 0.93819714 4289771183
0.083774343 -0.58970749 0.9381305 4289639600
0.085526839 -0.58967865 0.93806398 4290099897
0.087352172 -0.58959085 0.93697071 4290626500
0.089105621 -0.58956206 0.93690407 4291086797
0.091232702 -0.58923805 0.93170297 4291612886
0.093217954 -0.58903205 0.92855549 4290757835
0.095208913 -0.58882594 0.92540777 4285757569
0.10907425 -0.58501446 0.86139023 4280756791
0.1114734 -0.58457041 0.85413086 4280823093
0.1138026 -0.5841853 0.84789813 4281152307
-0.52837306 -0.59440303 0.83389187 4281612070
-0.52601546 -0.59447795 0.83585095 4280361749
-0.52366167 -0.59455305 0.83781004 4279177476
-0.46849048 -0.59489751 0.85824895 4281416229
-0.46642879 -0.59492052 0.85919487 4280692506
-0.46415383 -0.59499693 0.86115718 4280560920
-0.46145433 -0.59518009 0.86515188 4282600504
-0.45940214 -0.59520328 0.86609805 4285627239
-0.45650274 -0.59543997 0.87110949 4286745977
-0.45445815 -0.59546328 0.87205613 4286812026
-0.45157394 -0.59570032 0.87706804 4286417012
-0.44953695 -0.59572375 0.87801504 4286219377
-0.44750187 -0.59574711 0.87896192 4286021998
-0.44463855 -0.59598446 0.88397479 4285824619
-0.44261107 -0.59600806 0.88492203 4285824362
-0.44037983 -0.59608513 0.88688588 4285956204
-0.43774307 -0.59626937 0.89088297 4286087534
-0.43572509 -0.59629297 0.89183044 4286021742
-0.433709 -0.59631681 0.89277828 4285890412
-0.43149295 -0.59639406 0.89474273 4285955948
-0.42948163 -0.59641796 0.89569056 4286022254
-0.42727226 -0.59649539 0.89765537 4286088303
-0.42486778 -0.59662646 0.90063691 4286154095
-0.42286497 -0.59665042 0.9015851 4286088302
-0.42086411 -0.59667444 0.90253341 4285890922
-0.41866896 -0.59675211 0.90449858 4285956970
-0.416868 -0.59672248 0.90443015 4286088811
-0.41506705 -0.59669292 0.90436172 4284246862
-0.41365263 -0.59655595 0.90225947 4281549603
-0.41204208 -0.5964725 0.90117395 4280694805
-0.41042966 -0.59638911 0.90008843 4280630038
-0.40938655 -0.59614444 0.89595151 4280565271
-0.40776744 -0.59606099 0.89486575 4281158946
-0.40614647 -0.59597743 0.89377987 4282542907
-0.40489867 -0.59578621 0.89065945 4283005767
-0.403272 -0.59570265 0.88957357 4282613318
-0.40201467 -0.59551132 0.88645291 4282219586
-0.40038228 -0.59542763 0.88536644 4282022719
-0.39856425 -0.59539771 0.88529742 4282022719
-0.39747742 -0.59515226 0.88115895 4282088255
-0.39583743 -0.59506851 0.88007224 4282154049
-0.39419553 -0.59498453 0.87898552 4282154561
-0.39309156 -0.5947389 0.87484646 4282154304
-0.39126402 -0.59470886 0.87477696 4282154047
-0.38961449 -0.59462476 0.87369013 4282022461
-0.38849443 -0.59437889 0.86955035 4281825082
-0.38683829 -0.59429473 0.86846304 4281693496
-0.38500503 -0.59426463 0.86839342 4281561910
-0.38369453 -0.5940724 0.86527085 4281561397
-0.38203171 -0.59398818 0.86418331 4281626933
-0.38019463 -0.59395802 0.86411357 4281758261
-0.37887177 -0.59376556 0.86099041 4281889846
-0.3772023 -0.59368134 0.85990274 4281955126
-0.37536141 -0.59365106 0.85983276 4281823540
-0.37402621 -0.59345841 0.85670912 4281823283
-0.37218249 -0.59342813 0.85663915 4281888819
-0.37050542 -0.59334362 0.855551 4282151735
-0.0053878464 -0.58768278 0.84782696 4281677860
-0.0036162697 -0.58782423 0.85083258 4281480481
0.0053160004 -0.59188694 0.9262917 4280493597
0.0070235766 -0.59197259 0.92827547 4280493599
0.0087273158 -0.59205842 0.93025923 4280690725
0.010396268 -0.59220159 0.93326879 4280756266
0.012123417 -0.59223008 0.93422747 4280888368
0.01388162 -0.59220111 0.93416059 4281217336
0.01557209 -0.59228718 0.93614507 4281283386
0.017328385 -0.59225833 0.93607831 4281414971
0.019013118 -0.5923444 0.93806303 4281283642
0.020767506 -0.59231555 0.93799639 4281217593
0.022521909 -0.59228671 0.93792975 4280823092
0.024276298 -0.59225786 0.93786311 4280559666
0.026030686 -0.59222901 0.93779635 4280691250
0.027785089 -0.59220016 0.93772972 4280691506
0.029539492 -0.59217131 0.93766308 4280559918
0.031336296 -0.59208488 0.93657053 4280559918
0.033091638 -0.59205604 0.93650377 4280494124
0.034802657 -0.59208477 0.93746316 4280559917
0.03651179 -0.59211361 0.93842268 4280099365
0.038265254 -0.59208477 0.93835604 4280362537
0.039971512 -0.59211361 0.93931532 4283718232
0.041723993 -0.59208477 0.9392488 4287270797
0.043476488 -0.59205598 0.93918216 4287402638
0.045178954 -0.59208488 0.94014192 4287336843
0.046930496 -0.59205616 0.9400754 4287402636
0.048682038 -0.59202731 0.94000888 4287731343
0.050380703 -0.59205627 0.94096851 4287928722
0.052131306 -0.59202754 0.94090211 4288060307
0.053827111 -0.59205651 0.94186199 4288060307
0.05557676 -0.59202778 0.94179559 4287863184
0.057326395 -0.59199899 0.94172907 4287928977
0.059018414 -0.59202802 0.94268906 4288060564
0.06076711 -0.59199929 0.94262266 4287928977
0.062575325 -0.59191269 0.94152975 4287928976
0.06432496 -0.5918839 0.94146323 4287928976
0.06607461 -0.59185517 0.94139683 4287665803
0.067824244 -0.59182644 0.94133031 4287665803
0.069637239 -0.59173977 0.94023705 4287600010
0.071452096 -0.59165299 0.9391439 4287863182
0.073203638 -0.59162426 0.93907738 4288257940
0.075021386 -0.59153742 0.93798387 4288389526
0.076773867 -0.59150863 0.93791735 4288718237
0.078526363 -0.59147978 0.93785071 4288915616
0.080278859 -0.59145099 0.93778419 4288784033
0.082031354 -0.5914222 0.93771756 4287928725
0.08378385 -0.59139335 0.93765104 4286875785
0.085608229 -0.59130645 0.93655753 4287007372
0.087361678 -0.59127766 0.93649101 4287665561
0.089115128 -0.59124887 0.93642437 4288389285
0.091316983 -0.59087133 0.93019474 4289046962
0.093303189 -0.59066808 0.92704642 4288454826
0.095295116 -0.59046465 0.92389786 4284244076
0.11022358 -0.58595288 0.84650815 4280691253
0.11389585 -0.58589244 0.84636867 4281152304
-0.52811837 -0.59625423 0.83439541 4281348898
-0.52576172 -0.59632742 0.83635497 4280164370
-0.52340889 -0.59640068 0.83831477 4279045890
-0.47401741 -0.59676403 0.85795426 4282731832
-0.47195283 -0.59678602 0.85890043 4282468660
-0.47010818 -0.59675574 0.85883033 4282008109
-0.46761236 -0.5968827 0.86180925 4281153057
-0.46555451 -0.59690481 0.86275566 4280231955
-0.4634985 -0.59692693 0.86370206 4280297750
-0.46058771 -0.59715903 0.86871433 4282534711
-0.45853931 -0.59718132 0.86966109 4285824362
-0.45564374 -0.59741354 0.87467396 4286877307
-0.45360291 -0.59743595 0.87562096 4286877308
-0.45093295 -0.5976159 0.87961781 4286679929
-0.44889882 -0.59763843 0.88056493 4286679672
-0.44686651 -0.59766102 0.8815124 4286548087
-0.44421366 -0.59784138 0.88550997 4286482294
-0.44218802 -0.59786403 0.88645756 4286416502
-0.43995872 -0.59793925 0.88842189 4286547831
-0.43752858 -0.59806722 0.8914032 4286745466
-0.4355115 -0.59809005 0.89235127 4286745466
-0.43349639 -0.59811288 0.89329922 4286679417
-0.43128136 -0.5981884 0.89526427 4286745210
-0.42927098 -0.59821129 0.89621246 4286679673
-0.42726246 -0.5982343 0.89716077 4286679928
-0.424858 -0.59836268 0.90014315 4286680184
-0.42265719 -0.5984385 0.90210867 4286877819
-0.42065725 -0.59846151 0.9030571 4287272577
-0.41846308 -0.59853739 0.90502298 4287733384
-0.41666308 -0.59850776 0.90495467 4287733638
-0.41486305 -0.5984782 0.90488625 4285562723
-0.41325632 -0.59839582 0.90380061 4282010156
-0.41164768 -0.59831345 0.90271485 4280563221
-0.41003713 -0.59823102 0.90162921 4280563989
-0.40880546 -0.59804285 0.89850867 4280432916
-0.4073787 -0.59790742 0.89640546 4280697883
-0.40575963 -0.59782481 0.89531922 4282081588
-0.40470126 -0.59758359 0.89118087 4282873413
-0.40307555 -0.5975008 0.89009452 4282546756
-0.40200481 -0.5972594 0.88595569 4282153280
-0.40037242 -0.59717655 0.8848691 4281956669
-0.39873818 -0.59709376 0.88378239 4281956925
-0.39746752 -0.59690487 0.88066053 4282088255
-0.39582753 -0.59682202 0.87957358 4282154049
-0.39418563 -0.59673899 0.87848651 4282088770
-0.39308164 -0.596497 0.87434638 4282088512
-0.3912541 -0.59646696 0.874277 4282154047
-0.38978267 -0.59633088 0.872172 4282088254
-0.38848448 -0.59614158 0.86904907 4281890875
-0.38682833 -0.59605837 0.86796153 4281693496
-0.38499507 -0.59602821 0.86789179 4281496117
-0.38368458 -0.59583879 0.86476851 4281495604
-0.3820217 -0.59575546 0.86368072 4281561140
-0.380357 -0.59567213 0.86259282 4281692468
-0.37886181 -0.59553558 0.86048698 4281824053
-0.37719235 -0.59545219 0.85939896 4281823796
-0.37552094 -0.59536874 0.85831094 4281757747
-0.3740162 -0.59523213 0.85620463 4281823283
-0.37234011 -0.5951485 0.85511637 4281888819
-0.37049541 -0.59511817 0.85504627 4282151734
-0.0035838373 -0.58953428 0.8493048 4281612066
0.0054101087 -0.59341633 0.92273164 4280493597
0.0071204863 -0.59350014 0.92471576 4280427806
0.0088270865 -0.59358406 0.92670012 4280690725
0.010467838 -0.59378099 0.93073606 4280756522
0.012228888 -0.59375203 0.93066919 4280888368
0.013957012 -0.59377956 0.93162799 4280954418
0.015649345 -0.59386367 0.93361282 4281086006
0.017372739 -0.59389126 0.93457198 4281086263
0.019129973 -0.59386241 0.93450522 4281020471
0.020850498 -0.59389013 0.93546438 4281151800
0.022606794 -0.59386122 0.93539762 4280888884
0.024363074 -0.59383237 0.93533099 4280625715
0.02611937 -0.59380352 0.93526423 4280691251
0.027875666 -0.59377462 0.93519747 4280691250
0.029631961 -0.59374577 0.93513083 4280559918
0.031388257 -0.59371686 0.93506408 4280691504
0.033144567 -0.59368801 0.93499732 4280625710
0.034856517 -0.59371585 0.93595684 4280757296
0.036566582 -0.59374368 0.93691647 4280888881
0.038320985 -0.59371483 0.93684983 4281217845
0.040028196 -0.59374273 0.93780971 4284639079
0.041781645 -0.59371394 0.93774307 4287600019
0.04353508 -0.59368509 0.93767643 4287665811
0.045238491 -0.59371305 0.93863618 4287402894
0.046990987 -0.5936842 0.93856955 4287468686
0.048691545 -0.59371233 0.93952966 4287731345
0.050390195 -0.59374034 0.94048965 4287797136
0.052140798 -0.59371156 0.94042313 4287928977
0.053891387 -0.59368277 0.94035661 4287994513
0.055641975 -0.59365404 0.94029009 4287862927
0.057335887 -0.59368211 0.94125044 4287862927
0.059085537 -0.59365332 0.94118392 4287994257
0.060835171 -0.59362459 0.94111753 4287797134
0.062584817 -0.5935958 0.94105101 4287731341
0.064394951 -0.59351015 0.93995762 4287665548
0.066145554 -0.5934813 0.9398911 4287402632
0.067896128 -0.59345257 0.93982458 4287402632
0.069710061 -0.59336674 0.93873119 4287336326
0.071461603 -0.59333801 0.93866467 4287402375
0.073213145 -0.59330916 0.93859816 4287402119
0.075030893 -0.59322327 0.93750441 4287468168
0.076783374 -0.59319448 0.93743777 4287796878
0.07853587 -0.59316564 0.93737125 4287994258
0.080357388 -0.59307981 0.93627763 4287599503
0.082110867 -0.59305096 0.93621111 4285889142
0.083864287 -0.59302211 0.93614447 4283915100
0.085617736 -0.59299326 0.93607783 4283454550
0.087371185 -0.59296447 0.9360112 4283849567
0.089124635 -0.59293568 0.93594456 4284507498
0.091401264 -0.59250647 0.92868614 4284836211
0.093388453 -0.5923059 0.92553687 4284309867
0.095381305 -0.59210521 0.9223876 4282599250
0.11007075 -0.58783388 0.84806097 4280559666
-0.52786368 -0.59810358 0.83489954 4281414691
-0.52575159 -0.59812391 0.83584404 4280690714
-0.52339876 -0.59819531 0.83780432 4279901199
-0.47585303 -0.59856987 0.85751951 4282863418
-0.47378752 -0.59859097 0.85846579 4282666039
-0.47172388 -0.59861219 0.85941231 4282468660
-0.46988019 -0.59858185 0.85934222 4282073902
-0.46738538 -0.59870601 0.86232197 4281482022
-0.46532845 -0.59872723 0.86326861 4280955678
-0.46241292 -0.59895456 0.86828196 4281679403
-0.46036357 -0.59897602 0.86922884 4283718987
-0.45831618 -0.59899729 0.87017596 4286219121
-0.45563382 -0.59917355 0.8741734 4287206017
-0.45338166 -0.59924662 0.87613738 4287337603
-0.45092306 -0.59937131 0.87911856 4287271810
-0.44888893 -0.59939289 0.88006592 4287337603
-0.44685665 -0.59941459 0.88101363 4287337347
-0.44420379 -0.59959126 0.88501227 4287271555
-0.44217816 -0.59961295 0.8859601 4287271555
-0.43994889 -0.59968638 0.88792491 4287271555
-0.43731406 -0.59986341 0.89192426 4287337348
-0.43550166 -0.59983361 0.89185536 4287337348
-0.43348658 -0.59985548 0.89280367 4287271555
-0.43127152 -0.59992921 0.89476919 4287139969
-0.42926118 -0.59995115 0.89571762 4287008639
-0.42725265 -0.5999732 0.89666617 4287008638
-0.42464921 -0.60015059 0.90066648 4287074430
-0.42264742 -0.60017282 0.90161538 4287206015
-0.42064747 -0.60019493 0.90256405 4287403650
-0.41845334 -0.60026902 0.90453053 4287733127
-0.41665334 -0.6002394 0.9044621 4287799432
-0.4148533 -0.60020983 0.90439379 4286220654
-0.41324657 -0.60012835 0.9033078 4282733879
-0.41144559 -0.60009873 0.90323949 4280629013
-0.40983599 -0.60001719 0.90215337 4280497939
-0.40879568 -0.5997799 0.89801466 4280432914
-0.40717945 -0.59969831 0.89692843 4280500247
-0.40556127 -0.59961665 0.89584219 4281686575
-0.40450388 -0.59937906 0.89170265 4282610242
-0.40287903 -0.59929729 0.89061618 4282480708
-0.40180936 -0.59905946 0.88647616 4282218816
-0.4001779 -0.59897757 0.88538957 4281956412
-0.39854452 -0.59889567 0.88430262 4281956668
-0.39745766 -0.59865755 0.880162 4282022462
-0.39581767 -0.59857559 0.87907481 4282153792
-0.39417574 -0.59849346 0.8779875 4282153794
-0.39307174 -0.59825516 0.87384641 4282154049
-0.3912442 -0.59822512 0.87377691 4282154048
-0.38959464 -0.59814286 0.87268949 4282154047
-0.38829744 -0.59795642 0.86956584 4281956669
-0.38664225 -0.59787416 0.86847806 4281693497
-0.38480991 -0.597844 0.86840844 4281496117
-0.38350034 -0.59765732 0.86528432 4281429811
-0.38183847 -0.59757495 0.8641963 4281495347
